# .PCD v0.7 - Point Cloud Data file format
VERSION 0.7
FIELDS x y z rgb
SIZE 4 4 4 4
TYPE F F F F
COUNT 1 1 1 1
WIDTH 1019
HEIGHT 1
VIEWPOINT 0 0 0 1 0 0 0
POINTS 1019
DATA ascii
0.80454099 0.21530466 0.61000162 1.0786889e-38
0.81487381 0.21489947 0.61000162 1.0786889e-38
0.82513165 0.21484664 0.61000168 1.0786889e-38
0.8340382 0.21529059 0.61000186 1.0786889e-38
0.84480333 0.21480139 0.61000186 1.0786889e-38
0.85522968 0.21484482 0.61000204 1.0786889e-38
0.86449152 0.21495001 0.6100021 1.0786889e-38
0.56850767 0.22502775 0.61000007 1.0694693e-38
0.57577634 0.22498477 0.61000013 1.0694693e-38
0.58511496 0.22488509 0.61000001 1.0694693e-38
0.59457707 0.22487429 0.61000037 1.0694693e-38
0.60522711 0.22498624 0.61000043 1.0694693e-38
0.61490881 0.22502676 0.61000037 1.0694693e-38
0.62491274 0.22505112 0.61000055 1.0694693e-38
0.63517118 0.22499387 0.61000055 1.0694693e-38
0.64449382 0.22502251 0.61000055 1.0694693e-38
0.65477484 0.22506382 0.61000061 1.0694693e-38
0.66525358 0.22500652 0.61000061 1.0694693e-38
0.67456537 0.22505608 0.61000067 1.0694693e-38
0.68444699 0.22508641 0.61000073 1.0694693e-38
0.69447225 0.22511788 0.61000085 1.0694693e-38
0.70436704 0.22492731 0.61000079 1.0694693e-38
0.71408951 0.2249829 0.61000097 1.0694693e-38
0.72443724 0.22501785 0.61000109 1.0694693e-38
0.73493767 0.22505409 0.61000109 1.0786889e-38
0.74573594 0.22503734 0.61031586 1.0694693e-38
0.75474209 0.22471277 0.61000144 1.0786889e-38
0.76420635 0.22505145 0.61000144 1.0786889e-38
0.77536023 0.22485797 0.61001831 1.0694693e-38
0.78469783 0.22468495 0.6100477 1.0786889e-38
0.79475933 0.22479761 0.61000156 1.0786889e-38
0.80474621 0.22498018 0.61000162 1.0786889e-38
0.81487358 0.22499891 0.61000162 1.0786889e-38
0.82534236 0.2246557 0.61000162 1.0786889e-38
0.83382493 0.2251966 0.61000192 1.0786889e-38
0.84456474 0.22485264 0.61000186 1.0786889e-38
0.85522932 0.22486737 0.61000198 1.0786889e-38
0.86449152 0.22537974 0.61000216 1.0786889e-38
0.44923982 0.23292929 0.61842746 1.0694693e-38
0.56850773 0.23517917 0.61000007 1.0694693e-38
0.57570487 0.2350242 0.61000001 1.0694693e-38
0.58506918 0.23495686 0.61000007 1.0694693e-38
0.59465033 0.23488902 0.61000037 1.0694693e-38
0.60537869 0.23490895 0.61000043 1.0694693e-38
0.61515635 0.23488119 0.61000043 1.0694693e-38
0.62498754 0.23512219 0.61000055 1.0694693e-38
0.63496542 0.23523952 0.61000055 1.0694693e-38
0.64407665 0.23489985 0.61000055 1.0694693e-38
0.65460443 0.23500068 0.61000061 1.0694693e-38
0.66525298 0.23502046 0.61000061 1.0694693e-38
0.67500168 0.23512222 0.61000067 1.0694693e-38
0.68462133 0.23500425 0.61000073 1.0694693e-38
0.69407195 0.2351277 0.61000085 1.0694693e-38
0.7039606 0.23500776 0.61000085 1.0694693e-38
0.71420985 0.23487784 0.61000091 1.0694693e-38
0.72455978 0.23498586 0.61000115 1.0694693e-38
0.7350626 0.23509628 0.61000115 1.0694693e-38
0.7454046 0.23497815 0.61000133 1.0694693e-38
0.75457424 0.23475051 0.61000144 1.0694693e-38
0.76427114 0.23505571 0.6100015 1.0694693e-38
0.77536881 0.23516981 0.61000144 1.0694693e-38
0.78489774 0.23484802 0.61000156 1.0694693e-38
0.79475933 0.23476318 0.61000156 1.0694693e-38
0.80474627 0.23501222 0.61000162 1.0694693e-38
0.81487381 0.23509836 0.61000162 1.0694693e-38
0.82513165 0.23450556 0.61000168 1.0694693e-38
0.83403832 0.23506151 0.6100018 1.0694693e-38
0.84456474 0.23514971 0.61000186 1.0786889e-38
0.85544854 0.23487113 0.61000204 1.0786889e-38
0.86426955 0.23548059 0.6100021 1.0786889e-38
0.29548064 0.24513124 0.61682397 7.7444329e-39
0.56850767 0.24533056 0.61000007 1.0694693e-38
0.57584721 0.24506488 0.61000001 1.0694693e-38
0.58520573 0.24502255 0.61000001 1.0694693e-38
0.59472328 0.24490549 0.61000037 1.0694693e-38
0.60530913 0.24507564 0.61000514 1.0694693e-38
0.61525166 0.24496458 0.61000043 1.0694693e-38
0.62530535 0.24502154 0.61000055 1.0694693e-38
0.63537687 0.24501926 0.61000055 1.0694693e-38
0.64433515 0.24497442 0.61000055 1.0694693e-38
0.65477484 0.24493806 0.61000061 1.0694693e-38
0.66525358 0.2450342 0.61000061 1.0694693e-38
0.67461234 0.24498975 0.61000073 1.0694693e-38
0.68422616 0.24494039 0.61000067 1.0694693e-38
0.6942476 0.24511461 0.61000085 1.0694693e-38
0.70424742 0.24506223 0.61000079 1.0694693e-38
0.71450138 0.24500678 0.61000097 1.0694693e-38
0.72468305 0.24495637 0.61000097 1.0694693e-38
0.73487568 0.24490955 0.61000121 1.0694693e-38
0.74521559 0.24486065 0.61000127 1.0694693e-38
0.75474185 0.24507987 0.61000144 1.0694693e-38
0.76420647 0.24506435 0.61000144 1.0694693e-38
0.77517122 0.24525821 0.6100015 1.0694693e-38
0.78489774 0.24474795 0.61000156 1.0694693e-38
0.79469156 0.24497943 0.61000156 1.0694693e-38
0.80474627 0.24504425 0.61000162 1.0694693e-38
0.81487381 0.24519777 0.61000162 1.0694693e-38
0.82513165 0.2446733 0.61000168 1.0694693e-38
0.83403838 0.24494758 0.61000174 1.0694693e-38
0.84432542 0.24519481 0.61000186 1.0694693e-38
0.85522938 0.24491367 0.61000198 1.0694693e-38
0.86449182 0.24519479 0.61000204 1.0694693e-38
0.45472309 0.2582047 0.61083519 1.0694693e-38
0.56850773 0.2554819 0.61000007 1.0694693e-38
0.57556212 0.25492957 0.61000001 1.0694693e-38
0.58506912 0.2550967 0.61000007 1.0694693e-38
0.59442985 0.25491583 0.61000043 1.0694693e-38
0.60507208 0.25492567 0.61000043 1.0694693e-38
0.6149652 0.25505733 0.61000043 1.0694693e-38
0.6248278 0.25491151 0.61000049 1.0694693e-38
0.63502347 0.25504506 0.61000055 1.0694693e-38
0.64428478 0.25506055 0.61000055 1.0694693e-38
0.65469056 0.2550548 0.61000061 1.0694693e-38
0.66525298 0.25504807 0.61000061 1.0694693e-38
0.67478317 0.25483873 0.61000067 1.0694693e-38
0.68466854 0.25508353 0.61000073 1.0694693e-38
0.69430858 0.25521901 0.6103726 1.0694693e-38
0.7043671 0.25489163 0.61000091 1.0694693e-38
0.71408951 0.25515428 0.61000097 1.0694693e-38
0.72431499 0.25493819 0.61000109 1.0694693e-38
0.73463821 0.25495893 0.61000133 1.0694693e-38
0.74534136 0.25497475 0.61000133 1.0694693e-38
0.75474197 0.25510231 0.61000144 1.0694693e-38
0.76440102 0.25506726 0.61000144 1.0694693e-38
0.77517134 0.25509337 0.61000144 1.0694693e-38
0.7848978 0.25464785 0.61000156 1.0694693e-38
0.79475927 0.2551921 0.61000162 1.0694693e-38
0.80474627 0.25507626 0.61000162 1.0694693e-38
0.81464344 0.2550486 0.61000162 1.0694693e-38
0.82513165 0.25484103 0.61000162 1.0694693e-38
0.83403808 0.25483382 0.61000174 1.0694693e-38
0.84448534 0.25497133 0.61000186 1.0694693e-38
0.85522938 0.25528175 0.61000198 1.0694693e-38
0.86471319 0.25491333 0.6100021 1.0694693e-38
0.34616154 0.26704341 0.61633545 7.7444329e-39
0.53885096 0.26477894 0.61539966 1.0694693e-38
0.56841487 0.26523066 0.61000007 1.0694693e-38
0.57570511 0.26497021 0.61000025 1.0694693e-38
0.58493227 0.26516777 0.61000013 1.0694693e-38
0.59450364 0.26492995 0.61000043 1.0694693e-38
0.60516083 0.26484939 0.61013812 1.0694693e-38
0.61506087 0.26513913 0.61000037 1.0694693e-38
0.62506688 0.26498765 0.61000049 1.0694693e-38
0.63517153 0.26505733 0.61000055 1.0694693e-38
0.64428562 0.26492074 0.61000055 1.0694693e-38
0.65460843 0.26516959 0.61000061 1.0694693e-38
0.6652537 0.26506183 0.61000061 1.0694693e-38
0.67478383 0.26492226 0.61000067 1.0694693e-38
0.68427384 0.26501459 0.61000073 1.0694693e-38
0.69402361 0.26510569 0.61000085 1.0694693e-38
0.7039606 0.26496342 0.61000085 1.0694693e-38
0.71420985 0.26505178 0.61000097 1.0694693e-38
0.7244373 0.26490712 0.61000097 1.0694693e-38
0.73487574 0.26499838 0.61000121 1.0694693e-38
0.74546772 0.26509142 0.61000127 1.0694693e-38
0.75490999 0.265113 0.61000144 1.0694693e-38
0.76420647 0.26507822 0.61000144 1.0694693e-38
0.77517116 0.26492858 0.61000144 1.0694693e-38
0.78489763 0.26454777 0.61000156 1.0694693e-38
0.79475927 0.26515764 0.61000156 1.0694693e-38
0.80474609 0.26510829 0.61000162 1.0694693e-38
0.81487387 0.26489025 0.61000162 1.0694693e-38
0.82513165 0.26500875 0.61000168 1.0694693e-38
0.83419311 0.26465291 0.61046308 1.0694693e-38
0.84456474 0.26500922 0.61000186 1.0694693e-38
0.85500997 0.26531869 0.61000204 1.0694693e-38
0.86449152 0.26501271 0.61000216 1.0694693e-38
0.40847242 0.27442527 0.61376148 1.0694693e-38
0.56850773 0.27493811 0.61000007 1.0694693e-38
0.57563388 0.27500629 0.61000007 1.0694693e-38
0.5850237 0.27502048 0.60999995 1.0694693e-38
0.59457701 0.27494583 0.61000037 1.0694693e-38
0.60537863 0.27495167 0.61000043 1.0694693e-38
0.61530817 0.2750034 0.61000037 1.0694693e-38
0.62530547 0.27506927 0.61000055 1.0694693e-38
0.63531858 0.27507293 0.61000055 1.0694693e-38
0.64443469 0.27500468 0.61000055 1.0694693e-38
0.65477705 0.27511084 0.61000061 1.0694693e-38
0.66525286 0.27507579 0.61000061 1.0694693e-38
0.67478317 0.27500594 0.61000067 1.0694693e-38
0.68462807 0.27511054 0.61031181 1.0694693e-38
0.69430643 0.27509513 0.61000079 1.0694693e-38
0.70424742 0.27502394 0.61000091 1.0694693e-38
0.71433079 0.27495176 0.61000097 1.0694693e-38
0.7245599 0.27487856 0.61000091 1.0694693e-38
0.73493773 0.27480426 0.61000121 1.0694693e-38
0.74540472 0.2749705 0.61000133 1.0694693e-38
0.75474209 0.27514848 0.61000144 1.0694693e-38
0.7640124 0.27508503 0.6100015 1.0694693e-38
0.77497435 0.27501026 0.61000144 1.0694693e-38
0.78472286 0.27478853 0.61000156 1.0694693e-38
0.79475933 0.27512321 0.61000156 1.0694693e-38
0.80474621 0.27514035 0.61000162 1.0694693e-38
0.81468457 0.27487835 0.61035097 1.0694693e-38
0.82513165 0.2751765 0.61000162 1.0694693e-38
0.83403814 0.2746073 0.61000174 1.0694693e-38
0.84464467 0.27504864 0.61000186 1.0694693e-38
0.85522968 0.27497968 0.61000198 1.0694693e-38
0.86426955 0.27510798 0.61000204 1.0694693e-38
0.42388684 0.28157967 0.61699021 1.0694693e-38
0.56850767 0.28508946 0.61000007 1.0694693e-38
0.57570499 0.28504714 0.60999995 1.0694693e-38
0.58511496 0.28487536 0.61000019 1.0694693e-38
0.59465021 0.28496334 0.61000037 1.0694693e-38
0.60530335 0.28487259 0.61000043 1.0694693e-38
0.61496514 0.28487101 0.61000043 1.0694693e-38
0.62482774 0.28494847 0.61000055 1.0694693e-38
0.63496548 0.28508997 0.61000055 1.0694693e-38
0.64407665 0.28508994 0.61000055 1.0694693e-38
0.65460855 0.28504136 0.61000061 1.0694693e-38
0.66525358 0.28508949 0.61000061 1.0694693e-38
0.67478389 0.2850894 0.61000067 1.0694693e-38
0.68444777 0.2850894 0.61000079 1.0694693e-38
0.69424838 0.28508943 0.61000085 1.0694693e-38
0.70418853 0.2850894 0.61000085 1.0694693e-38
0.71445227 0.2848542 0.61000097 1.0694693e-38
0.72468293 0.2848525 0.61000109 1.0694693e-38
0.7350626 0.28485078 0.61000121 1.0694693e-38
0.74559432 0.28484902 0.61000127 1.0694693e-38
0.75474197 0.28484768 0.61000144 1.0694693e-38
0.76420647 0.28508925 0.61000144 1.0694693e-38
0.77517116 0.28508931 0.61000144 1.0694693e-38
0.7848978 0.28500637 0.61000156 1.0694693e-38
0.79475927 0.28508872 0.61000156 1.0694693e-38
0.80474609 0.2851724 0.61000162 1.0694693e-38
0.81487387 0.28508919 0.61000162 1.0694693e-38
0.82513165 0.28534421 0.61000168 1.0694693e-38
0.83403808 0.28483436 0.61000174 1.0694693e-38
0.84456462 0.28508908 0.61000186 1.0694693e-38
0.85564625 0.28450757 0.61042672 1.0694693e-38
0.86449182 0.2848278 0.61000204 1.0694693e-38
0.42331675 0.29040289 0.61026013 1.0694693e-38
0.44440237 0.29246408 0.61158711 1.0694693e-38
0.56860059 0.29479969 0.61000007 1.0694693e-38
0.57570517 0.29508588 0.60999995 1.0694693e-38
0.58506924 0.29494497 0.61000019 1.0694693e-38
0.59442979 0.29497927 0.61000043 1.0694693e-38
0.6052295 0.29479176 0.61000043 1.0694693e-38
0.61506087 0.29495507 0.61000037 1.0694693e-38
0.625067 0.29502994 0.61000049 1.0694693e-38
0.63522053 0.2951059 0.61000055 1.0694693e-38
0.6444937 0.29495183 0.61000055 1.0694693e-38
0.65477711 0.29498506 0.61000061 1.0694693e-38
0.66525292 0.2951034 0.61000061 1.0694693e-38
0.67478317 0.29517317 0.61000067 1.0694693e-38
0.68438923 0.29501247 0.61000079 1.0694693e-38
0.69418901 0.29508257 0.61000085 1.0694693e-38
0.70412832 0.29515368 0.61000085 1.0694693e-38
0.71403974 0.29498947 0.61000097 1.0694693e-38
0.72431511 0.29482406 0.61000091 1.0694693e-38
0.73468924 0.29489484 0.61000115 1.0694693e-38
0.74521554 0.29496658 0.61000127 1.0694693e-38
0.75457436 0.29487848 0.61000144 1.0694693e-38
0.76414138 0.29509485 0.61000144 1.0694693e-38
0.77517122 0.29492444 0.6100015 1.0694693e-38
0.78489769 0.29490623 0.61000156 1.0694693e-38
0.79475939 0.29505429 0.61000156 1.0694693e-38
0.80474621 0.29520443 0.61000156 1.0694693e-38
0.81479728 0.29493532 0.61000162 1.0694693e-38
0.82492071 0.29518312 0.61000162 1.0694693e-38
0.8340382 0.29506132 0.61000186 1.0694693e-38
0.84480333 0.29513112 0.61000186 1.0694693e-38
0.85522932 0.29468048 0.61000198 1.0694693e-38
0.8644914 0.29490992 0.61000198 1.0694693e-38
0.56850767 0.30454692 0.61000007 1.0694693e-38
0.57570493 0.30512461 0.60999995 1.0694693e-38
0.58520573 0.30501702 0.61000019 1.0694693e-38
0.59472322 0.30498505 0.61000043 1.0694693e-38
0.60530418 0.30489215 0.61000043 1.0694693e-38
0.61515629 0.30504122 0.61000037 1.0694693e-38
0.62498701 0.30511099 0.61000055 1.0694693e-38
0.63517082 0.30512193 0.61000055 1.0694693e-38
0.64413536 0.30503264 0.61000055 1.0694693e-38
0.65460837 0.3049131 0.61000061 1.0694693e-38
0.6652537 0.30511716 0.61000061 1.0694693e-38
0.67495507 0.30503064 0.61000067 1.0694693e-38
0.68466854 0.30494025 0.61000067 1.0694693e-38
0.69430661 0.30484509 0.61000085 1.0694693e-38
0.70447469 0.30495843 0.61044317 1.0694693e-38
0.71433079 0.30512834 0.61000091 1.0694693e-38
0.72443724 0.30479643 0.61000109 1.0694693e-38
0.73481321 0.30493969 0.61000127 1.0694693e-38
0.74534136 0.30508506 0.61000133 1.0694693e-38
0.75474203 0.30489147 0.61000144 1.0694693e-38
0.76420647 0.30510131 0.6100015 1.0694693e-38
0.77510536 0.30500436 0.61000144 1.0694693e-38
0.7848978 0.30480614 0.61000156 1.0694693e-38
0.79475939 0.30501986 0.61000156 1.0694693e-38
0.80474633 0.30523646 0.61000156 1.0694693e-38
0.81487381 0.30478257 0.61000168 1.0694693e-38
0.82531142 0.30482534 0.61012197 1.0694693e-38
0.83403808 0.30528834 0.6100018 1.0694693e-38
0.84432542 0.30490866 0.61000186 1.0694693e-38
0.85522932 0.30504853 0.61000198 1.0694693e-38
0.86471313 0.30498314 0.61000204 1.0694693e-38
0.56850773 0.31469831 0.61000007 1.0694693e-38
0.57577646 0.31516817 0.61000007 1.0694693e-38
0.58493227 0.31486693 0.61000001 1.0694693e-38
0.59450352 0.31499866 0.61000037 1.0694693e-38
0.60537863 0.31499425 0.61000043 1.0694693e-38
0.61510819 0.31490666 0.61000049 1.0694693e-38
0.62514621 0.31499138 0.61000055 1.0694693e-38
0.63517147 0.31491548 0.61000055 1.0694693e-38
0.64428544 0.31511867 0.61000055 1.0694693e-38
0.65460783 0.31504199 0.61000061 1.0694693e-38
0.66525298 0.31513101 0.61000061 1.0694693e-38
0.67456549 0.31487769 0.61000067 1.0694693e-38
0.68422616 0.31508663 0.61000079 1.0694693e-38
0.6942485 0.3148382 0.61000085 1.0694693e-38
0.70418847 0.31504992 0.61000085 1.0694693e-38
0.71445215 0.31503338 0.61000097 1.0694693e-38
0.72455996 0.31477126 0.61000091 1.0694693e-38
0.73493767 0.31498709 0.61000115 1.0694693e-38
0.74540484 0.31496367 0.61000127 1.0694693e-38
0.75474179 0.31491396 0.61000144 1.0694693e-38
0.76420647 0.31486347 0.6100015 1.0694693e-38
0.77517116 0.31508604 0.6100015 1.0694693e-38
0.78489751 0.31503612 0.61000156 1.0694693e-38
0.79475927 0.31498545 0.61000156 1.0694693e-38
0.80474639 0.31526849 0.61000156 1.0694693e-38
0.8148737 0.3148821 0.61000162 1.0694693e-38
0.82513165 0.31516826 0.61000168 1.0694693e-38
0.83382475 0.31518179 0.61000186 1.0694693e-38
0.8445648 0.31495062 0.61000186 1.0694693e-38
0.85501003 0.31507844 0.61000204 1.0694693e-38
0.86449146 0.31507549 0.61000198 1.0694693e-38
0.51853782 0.32999307 0.61599618 1.0694693e-38
0.56850773 0.32484972 0.61000007 1.0694693e-38
0.57556212 0.32503331 0.60999995 1.0694693e-38
0.58506924 0.32493901 0.61000019 1.0694693e-38
0.59457707 0.32501733 0.61000043 1.0694693e-38
0.60515463 0.32508785 0.61000043 1.0694693e-38
0.61506087 0.3247709 0.61000043 1.0694693e-38
0.62506688 0.32507229 0.61000049 1.0694693e-38
0.63531858 0.3249366 0.61000055 1.0694693e-38
0.6442849 0.32497904 0.61000055 1.0694693e-38
0.65477753 0.32496315 0.61000061 1.0694693e-38
0.66525358 0.32514486 0.61000061 1.0694693e-38
0.67500156 0.32497233 0.61000067 1.0694693e-38
0.68450511 0.32501611 0.61000073 1.0694693e-38
0.6942476 0.32506439 0.61000085 1.0694693e-38
0.70412832 0.32511291 0.61000091 1.0694693e-38
0.71408951 0.32492569 0.61000091 1.0694693e-38
0.72449929 0.32498038 0.61000091 1.0694693e-38
0.7350626 0.32503712 0.61000115 1.0694693e-38
0.74546766 0.32484356 0.61000127 1.0694693e-38
0.75474209 0.32493636 0.61000144 1.0694693e-38
0.76427114 0.32487172 0.6100015 1.0694693e-38
0.77517116 0.32492119 0.61000144 1.0694693e-38
0.78489774 0.32526594 0.61000156 1.0694693e-38
0.79475927 0.32495099 0.61000156 1.0694693e-38
0.80474627 0.32530051 0.61000156 1.0694693e-38
0.81487381 0.32498148 0.61000162 1.0694693e-38
0.82513195 0.32499701 0.61000168 1.0694693e-38
0.83403838 0.32505929 0.61000186 1.0694693e-38
0.84448534 0.32498795 0.61000186 1.0694693e-38
0.85550499 0.32539254 0.61047852 1.0694693e-38
0.86426955 0.32516357 0.61000204 1.0694693e-38
0.56850773 0.33500111 0.61000007 1.0694693e-38
0.57570487 0.33507004 0.61000001 1.0694693e-38
0.58502382 0.33500651 0.61000013 1.0694693e-38
0.59465027 0.33503774 0.61000043 1.0694693e-38
0.60538107 0.33500281 0.61000043 1.0694693e-38
0.61515659 0.33485928 0.61000043 1.0694693e-38
0.62498695 0.33515152 0.61000055 1.0694693e-38
0.63496542 0.33494046 0.61000055 1.0694693e-38
0.64423549 0.33506131 0.61000055 1.0694693e-38
0.65460789 0.33491373 0.61000061 1.0694693e-38
0.6652528 0.33515871 0.61000061 1.0694693e-38
0.67456549 0.33504173 0.61000067 1.0694693e-38
0.68444782 0.33493823 0.61000067 1.0694693e-38
0.69442433 0.33506501 0.61000079 1.0694693e-38
0.70424742 0.3349475 0.61000085 1.0694693e-38
0.71420991 0.33482912 0.61000091 1.0694693e-38
0.72443736 0.33518824 0.61000091 1.0694693e-38
0.7346893 0.3350707 0.61000127 1.0694693e-38
0.74559438 0.33496809 0.61000127 1.0694693e-38
0.75490999 0.3349551 0.61000144 1.0694693e-38
0.76424706 0.334685 0.61011857 1.0694693e-38
0.77523685 0.33500472 0.61000144 1.0694693e-38
0.78489786 0.33516592 0.6100015 1.0694693e-38
0.79473323 0.3350409 0.61043918 1.0694693e-38
0.80474657 0.33499813 0.61000156 1.0694693e-38
0.8148737 0.33508092 0.61000168 1.0694693e-38
0.82513165 0.3348259 0.61000168 1.0694693e-38
0.83403856 0.33494538 0.61000192 1.0694693e-38
0.84456474 0.33502945 0.61000186 1.0694693e-38
0.85522968 0.33511454 0.61000204 1.0694693e-38
0.86449158 0.33489057 0.61000204 1.0694693e-38
0.52860171 0.34913626 0.61108339 1.0694693e-38
0.56850761 0.34515247 0.61000007 1.0694693e-38
0.5757786 0.3449333 0.60999995 1.0694693e-38
0.58506918 0.34507751 0.61000007 1.0694693e-38
0.59442979 0.34504512 0.61000043 1.0694693e-38
0.60530424 0.34493256 0.61000043 1.0694693e-38
0.61525148 0.34494987 0.61000037 1.0694693e-38
0.62514627 0.3450354 0.61000049 1.0694693e-38
0.63522053 0.34496588 0.61000055 1.0694693e-38
0.64433962 0.34492597 0.61000055 1.0694693e-38
0.65477425 0.3450183 0.61000061 1.0694693e-38
0.6652537 0.34517246 0.61000061 1.0694693e-38
0.67484039 0.34490591 0.61000067 1.0694693e-38
0.68444687 0.34509259 0.61000073 1.0694693e-38
0.69402367 0.34504259 0.61000079 1.0694693e-38
0.70418847 0.3450104 0.61000085 1.0694693e-38
0.71433085 0.34473506 0.61000091 1.0694693e-38
0.72456002 0.3451657 0.61000091 1.0694693e-38
0.73481327 0.34511906 0.61000127 1.0694693e-38
0.74521554 0.34507257 0.61000127 1.0694693e-38
0.75474203 0.34498253 0.61000144 1.0694693e-38
0.76440102 0.34489122 0.6100015 1.0694693e-38
0.7751711 0.34508377 0.6100015 1.0694693e-38
0.78489786 0.3450658 0.6100015 1.0694693e-38
0.79475939 0.34488207 0.61000156 1.0694693e-38
0.80474627 0.34469584 0.61000156 1.0694693e-38
0.81487381 0.34518042 0.61000162 1.0694693e-38
0.82513165 0.34499359 0.61000168 1.0694693e-38
0.83403832 0.34483153 0.6100018 1.0694693e-38
0.84464467 0.34507245 0.61000186 1.0694693e-38
0.85544842 0.34478825 0.61000198 1.0694693e-38
0.86449152 0.34497264 0.6100021 1.0694693e-38
0.56850773 0.35530388 0.61000007 1.0694693e-38
0.57570493 0.35480779 0.60999995 1.0694693e-38
0.5851149 0.3551496 0.61000001 1.0694693e-38
0.59465265 0.35488215 0.61000043 1.0694693e-38
0.60537863 0.35503697 0.61000043 1.0694693e-38
0.61496508 0.35502091 0.61000037 1.0694693e-38
0.62506694 0.3551147 0.61000055 1.0694693e-38
0.63517082 0.35498005 0.61000055 1.0694693e-38
0.64423549 0.35478118 0.61000055 1.0694693e-38
0.65460509 0.3549664 0.61000061 1.0694693e-38
0.66519672 0.35495573 0.61000061 1.0694693e-38
0.67473143 0.35498446 0.61000067 1.0694693e-38
0.68444777 0.35524702 0.61000067 1.0694693e-38
0.69430661 0.35504827 0.61000085 1.0694693e-38
0.70412827 0.35507217 0.61000085 1.0694693e-38
0.71427101 0.35486969 0.61000097 1.0694693e-38
0.72449887 0.35489869 0.61000091 1.0694693e-38
0.73487568 0.35492751 0.61000109 1.0694693e-38
0.74534136 0.35519537 0.61000127 1.0694693e-38
0.75457436 0.35500646 0.61000144 1.0694693e-38
0.76401228 0.35512429 0.6100015 1.0694693e-38
0.77517116 0.3549189 0.61000144 1.0694693e-38
0.78489786 0.35496575 0.6100015 1.0694693e-38
0.79475939 0.35484761 0.61000156 1.0694693e-38
0.80474639 0.35472777 0.61000156 1.0694693e-38
0.8149507 0.3550311 0.61000162 1.0694693e-38
0.82513165 0.35516131 0.61000168 1.0694693e-38
0.83403814 0.35505852 0.6100018 1.0694693e-38
0.84456474 0.35510927 0.61000186 1.0694693e-38
0.85522938 0.3548153 0.61000198 1.0694693e-38
0.86471319 0.35505292 0.61000204 1.0694693e-38
0.56850761 0.36545527 0.61000007 1.0694693e-38
0.57579094 0.36514953 0.6102981 1.0694693e-38
0.58506912 0.36521676 0.60999995 1.0694693e-38
0.59457678 0.3649019 0.61000043 1.0694693e-38
0.60515457 0.36512369 0.61000043 1.0694693e-38
0.61506087 0.36511001 0.61000037 1.0694693e-38
0.62498701 0.36519203 0.61000049 1.0694693e-38
0.63512212 0.36499307 0.61000055 1.0694693e-38
0.64453191 0.36509323 0.61013323 1.0694693e-38
0.65477419 0.36489245 0.61000061 1.0694693e-38
0.6653049 0.36497539 0.61000061 1.0694693e-38
0.67484039 0.36507407 0.61000067 1.0694693e-38
0.68438923 0.36516702 0.61000073 1.0694693e-38
0.69424844 0.36503923 0.61000085 1.0694693e-38
0.70424747 0.36490926 0.61000085 1.0694693e-38
0.71420985 0.36500308 0.61000097 1.0694693e-38
0.72449929 0.36487138 0.61000085 1.0694693e-38
0.73493767 0.3647373 0.61000121 1.0694693e-38
0.74540478 0.36507621 0.61000127 1.0694693e-38
0.75474209 0.3650263 0.61000144 1.0694693e-38
0.76420647 0.36513916 0.6100015 1.0694693e-38
0.77517128 0.36475408 0.61000144 1.0694693e-38
0.78489774 0.36486563 0.6100015 1.0694693e-38
0.79475915 0.36481318 0.61000156 1.0694693e-38
0.80474639 0.36475983 0.61000156 1.0694693e-38
0.81487918 0.36465272 0.61016053 1.0694693e-38
0.82534236 0.36498976 0.61000162 1.0694693e-38
0.83425134 0.36494422 0.61000192 1.0694693e-38
0.84456402 0.36489153 0.61000186 1.0694693e-38
0.85500997 0.36483821 0.61000198 1.0694693e-38
0.86449146 0.36513814 0.6100021 1.0694693e-38
0.45447069 0.3737053 0.61220068 1.0694693e-38
0.56841487 0.37519601 0.61000007 1.0694693e-38
0.57570505 0.37505549 0.60999995 1.0694693e-38
0.58506894 0.37507197 0.61000007 1.0694693e-38
0.59457701 0.37508893 0.61000037 1.0694693e-38
0.60538113 0.37504551 0.61000043 1.0694693e-38
0.61515641 0.37520131 0.61000043 1.0694693e-38
0.62514609 0.3750796 0.61000055 1.0694693e-38
0.63522059 0.37523809 0.61000055 1.0694693e-38
0.64428484 0.37517691 0.61000055 1.0694693e-38
0.65460503 0.37483805 0.61000061 1.0694693e-38
0.66519678 0.37498257 0.61000061 1.0694693e-38
0.67478389 0.37492535 0.61000067 1.0694693e-38
0.68450505 0.37486702 0.61000073 1.0694693e-38
0.69418913 0.37502903 0.61000085 1.0694693e-38
0.70418847 0.37497094 0.61000079 1.0694693e-38
0.71433085 0.37491158 0.61000097 1.0694693e-38
0.72443736 0.37507749 0.61000091 1.0694693e-38
0.73487622 0.37501851 0.61000127 1.0694693e-38
0.7454676 0.37495825 0.61000133 1.0694693e-38
0.75474185 0.37504879 0.61000144 1.0694693e-38
0.76414156 0.37514123 0.61000144 1.0694693e-38
0.77497429 0.37484592 0.61000144 1.0694693e-38
0.78489774 0.37476552 0.6100015 1.0694693e-38
0.79475933 0.37477869 0.61000156 1.0694693e-38
0.8046236 0.37458417 0.61037153 1.0694693e-38
0.81487381 0.37497419 0.61000162 1.0694693e-38
0.82513165 0.37482026 0.61000168 1.0694693e-38
0.83403832 0.37483212 0.6100018 1.0694693e-38
0.84456474 0.37467369 0.61000186 1.0694693e-38
0.85522938 0.37485892 0.61000192 1.0694693e-38
0.86426944 0.3752192 0.61000204 1.0694693e-38
0.56850773 0.38491142 0.61000007 1.0694693e-38
0.57570493 0.38509411 0.61000001 1.0694693e-38
0.58506912 0.38492712 0.61000007 1.0694693e-38
0.59450066 0.38493368 0.61000043 1.0694693e-38
0.60530418 0.3849729 0.61000043 1.0694693e-38
0.61510807 0.38506413 0.61000037 1.0694693e-38
0.62506694 0.38515699 0.61000055 1.0694693e-38
0.63511711 0.38502431 0.61000055 1.0694693e-38
0.64428562 0.38503715 0.61000055 1.0694693e-38
0.65477419 0.38476667 0.61000061 1.0694693e-38
0.6653049 0.38500383 0.61000061 1.0694693e-38
0.67478305 0.38500893 0.61000067 1.0694693e-38
0.68444771 0.38478705 0.61000067 1.0694693e-38
0.69430661 0.38479832 0.61000085 1.0694693e-38
0.70412827 0.38503137 0.61000085 1.0694693e-38
0.71427101 0.38504496 0.61000085 1.0694693e-38
0.72455996 0.38505846 0.61000091 1.0694693e-38
0.73481327 0.3852984 0.61000127 1.0694693e-38
0.74540472 0.38483253 0.61000127 1.0694693e-38
0.75474209 0.38507131 0.61000144 1.0694693e-38
0.76420641 0.38515115 0.61000144 1.0694693e-38
0.77536875 0.38515133 0.6100015 1.0694693e-38
0.78507274 0.38499746 0.6100015 1.0694693e-38
0.79475939 0.38474429 0.61000156 1.0694693e-38
0.80474633 0.38482389 0.61000162 1.0694693e-38
0.81487381 0.38507372 0.61000162 1.0694693e-38
0.82513165 0.38498798 0.61000162 1.0694693e-38
0.83403808 0.38505909 0.61000186 1.0694693e-38
0.84456474 0.38497081 0.61000186 1.0694693e-38
0.85522968 0.38488132 0.61000198 1.0694693e-38
0.86449176 0.38495326 0.61000204 1.0694693e-38
0.56850761 0.39506277 0.61000007 1.0694693e-38
0.57556224 0.39513773 0.60999995 1.0694693e-38
0.5848583 0.39512229 0.61021459 1.0602497e-38
0.59457678 0.39494422 0.61000043 1.0694693e-38
0.60522664 0.39489844 0.61000043 1.0694693e-38
0.61506104 0.39492595 0.61000043 1.0694693e-38
0.62498701 0.39523259 0.61000055 1.0694693e-38
0.63522053 0.39482591 0.61000055 1.0694693e-38
0.64428478 0.39489746 0.61000055 1.0694693e-38
0.65469146 0.39506838 0.61000061 1.0694693e-38
0.66519672 0.3950094 0.61000061 1.0694693e-38
0.67478395 0.39509258 0.61000067 1.0694693e-38
0.68444699 0.39494136 0.61000067 1.0694693e-38
0.69424844 0.39478806 0.61000085 1.0694693e-38
0.70424753 0.39487109 0.61000091 1.0694693e-38
0.71420985 0.39517707 0.61000091 1.0694693e-38
0.72431511 0.39503494 0.61000097 1.0694693e-38
0.73487574 0.39510861 0.61000121 1.0694693e-38
0.74540526 0.39495134 0.61000133 1.0694693e-38
0.75491005 0.39509687 0.61000144 1.0694693e-38
0.76420653 0.39491332 0.61000144 1.0694693e-38
0.77517134 0.39524305 0.61000144 1.0694693e-38
0.7848978 0.39522663 0.6100015 1.0694693e-38
0.79475945 0.39470986 0.61000156 1.0694693e-38
0.80474639 0.39485595 0.61000162 1.0694693e-38
0.8148737 0.3951731 0.61000162 1.0694693e-38
0.82513165 0.39515576 0.61000162 1.0694693e-38
0.83382469 0.39494151 0.61000174 1.0694693e-38
0.84448546 0.39500457 0.61000186 1.0694693e-38
0.85522938 0.39490381 0.61000198 1.0694693e-38
0.86428076 0.39489028 0.61052805 1.0694693e-38
0.42820308 0.40274107 0.61193156 1.0602497e-38
0.5368582 0.40467188 0.61554444 1.0694693e-38
0.56850773 0.40521416 0.61000007 1.0602497e-38
0.5757764 0.40499857 0.61000001 1.0602497e-38
0.58506912 0.40506566 0.60999995 1.0694693e-38
0.59465271 0.40495661 0.61000043 1.0694693e-38
0.60530406 0.40499255 0.61000043 1.0694693e-38
0.61515635 0.40501934 0.61000043 1.0694693e-38
0.62514609 0.40512371 0.61000049 1.0694693e-38
0.63517088 0.40483817 0.61000055 1.0694693e-38
0.64423561 0.40497723 0.61000055 1.0694693e-38
0.65451854 0.40518969 0.61000061 1.0694693e-38
0.66530478 0.40503225 0.61000067 1.0694693e-38
0.67472625 0.40494183 0.61000067 1.0694693e-38
0.68444782 0.40509576 0.61000067 1.0694693e-38
0.69418889 0.40477651 0.61000085 1.0694693e-38
0.70418859 0.40493146 0.61000079 1.0694693e-38
0.71433079 0.40508816 0.61000097 1.0694693e-38
0.72468311 0.40499201 0.61000091 1.0694693e-38
0.73493773 0.40492013 0.61000127 1.0694693e-38
0.74540484 0.40507025 0.61000127 1.0694693e-38
0.75474197 0.40511736 0.61000144 1.0694693e-38
0.76427096 0.40492508 0.6100015 1.0694693e-38
0.77517116 0.40507823 0.6100015 1.0694693e-38
0.78489774 0.40512651 0.6100015 1.0694693e-38
0.79475921 0.40467539 0.61000156 1.0694693e-38
0.80474627 0.40488797 0.61000156 1.0694693e-38
0.81487381 0.40527257 0.61000162 1.0694693e-38
0.82492071 0.40497944 0.61000168 1.0694693e-38
0.83403808 0.40483004 0.6100018 1.0694693e-38
0.84456474 0.40504962 0.61000186 1.0694693e-38
0.85544842 0.40493152 0.61000198 1.0694693e-38
0.86471307 0.4051227 0.61000204 1.0694693e-38
0.56860048 0.4149332 0.61000007 1.0602497e-38
0.57570499 0.41503966 0.61000007 1.0602497e-38
0.5851149 0.41513985 0.61000013 1.0602497e-38
0.59457684 0.41497341 0.61000043 1.0602497e-38
0.60538107 0.41508833 0.61000043 1.0602497e-38
0.61510813 0.41488111 0.61000037 1.0602497e-38
0.62490749 0.41502544 0.61000055 1.0602497e-38
0.63512218 0.41484931 0.61000055 1.0602497e-38
0.64418095 0.41507578 0.61000055 1.0602497e-38
0.65485758 0.41511801 0.61000061 1.0602497e-38
0.66519672 0.41503614 0.61000061 1.0602497e-38
0.67476028 0.41489279 0.61021179 1.0602497e-38
0.68438929 0.41501373 0.61000073 1.0602497e-38
0.6941359 0.41478539 0.61000085 1.0694693e-38
0.70412838 0.4149906 0.61000091 1.0694693e-38
0.71408951 0.41498971 0.61000097 1.0694693e-38
0.72423917 0.41507119 0.61022723 1.0602497e-38
0.7346893 0.41496572 0.61000127 1.0694693e-38
0.74534124 0.41494229 0.61000127 1.0694693e-38
0.7545743 0.41513443 0.61000144 1.0694693e-38
0.76420653 0.41492623 0.6100015 1.0694693e-38
0.77510536 0.41515326 0.6100015 1.0694693e-38
0.78489774 0.41502637 0.6100015 1.0694693e-38
0.79473603 0.4146997 0.61008006 1.0602497e-38
0.80474633 0.41492 0.61000162 1.0694693e-38
0.81464362 0.4151257 0.61000162 1.0694693e-38
0.82513165 0.41481197 0.61000162 1.0694693e-38
0.8340382 0.41505697 0.61000186 1.0694693e-38
0.84464467 0.41509628 0.61000186 1.0694693e-38
0.85522932 0.41495016 0.61000198 1.0694693e-38
0.86426926 0.41484657 0.61000204 1.0694693e-38
0.56850767 0.42467174 0.61000007 1.0602497e-38
0.57563376 0.42507914 0.61000001 1.0602497e-38
0.58493233 0.4249939 0.60999995 1.0602497e-38
0.59457701 0.42516044 0.61000043 1.0602497e-38
0.60530424 0.42501327 0.61000043 1.0602497e-38
0.61506093 0.42474174 0.61000037 1.0602497e-38
0.62506694 0.42491776 0.61000049 1.0602497e-38
0.63522059 0.42509803 0.61000055 1.0602497e-38
0.64438957 0.4249163 0.61000055 1.0602497e-38
0.6545186 0.42506021 0.61000061 1.0602497e-38
0.66530472 0.42506069 0.61000061 1.0602497e-38
0.67472619 0.42510822 0.61000067 1.0602497e-38
0.68433684 0.424952 0.61000067 1.0602497e-38
0.6943602 0.42499092 0.61000085 1.0602497e-38
0.70424742 0.42483279 0.61000085 1.0602497e-38
0.71438605 0.42511064 0.61000097 1.0602497e-38
0.72456008 0.42495114 0.61000097 1.0602497e-38
0.7350626 0.42500046 0.61000127 1.0602497e-38
0.74540484 0.42482573 0.61000127 1.0602497e-38
0.75474191 0.42516121 0.61000144 1.0602497e-38
0.7640124 0.42493653 0.61000144 1.0602497e-38
0.77517134 0.42523989 0.61000144 1.0602497e-38
0.78489769 0.42492634 0.6100015 1.0602497e-38
0.79482669 0.42486218 0.61000156 1.0694693e-38
0.80474633 0.42495203 0.61000156 1.0694693e-38
0.81487387 0.42496499 0.61000162 1.0694693e-38
0.82513165 0.42497972 0.61000162 1.0694693e-38
0.83403844 0.42494315 0.61000192 1.0694693e-38
0.84456474 0.42512947 0.61000186 1.0694693e-38
0.85501003 0.42496464 0.61000204 1.0694693e-38
0.86449146 0.42493388 0.61000198 1.0694693e-38
0.56850767 0.43482307 0.61000007 1.0602497e-38
0.57584715 0.43494606 0.60999995 1.0602497e-38
0.58520585 0.43484256 0.61000013 1.0602497e-38
0.59450066 0.43500224 0.61000031 1.0602497e-38
0.60515451 0.43511075 0.61000025 1.0602497e-38
0.61510867 0.43505105 0.61000043 1.0602497e-38
0.62522024 0.43499044 0.61000055 1.0602497e-38
0.63517088 0.43510917 0.61000055 1.0602497e-38
0.64433521 0.43501633 0.61000055 1.0602497e-38
0.65485758 0.43499345 0.61000061 1.0602497e-38
0.66519672 0.43506303 0.61000067 1.0602497e-38
0.67467439 0.43497688 0.61000067 1.0602497e-38
0.68455797 0.43508756 0.61000067 1.0602497e-38
0.69439077 0.43503997 0.61031079 1.0602497e-38
0.70418847 0.43489197 0.61000085 1.0602497e-38
0.71427065 0.43502235 0.61000091 1.0602497e-38
0.72431517 0.43492073 0.61000097 1.0602497e-38
0.73481321 0.43504435 0.61000109 1.0602497e-38
0.74546772 0.43471035 0.61000127 1.0602497e-38
0.75474209 0.43486038 0.61000144 1.0602497e-38
0.76420653 0.4349373 0.61000144 1.0602497e-38
0.77517122 0.43507504 0.6100015 1.0602497e-38
0.7847231 0.43514824 0.6100015 1.0602497e-38
0.79475939 0.43507084 0.61000156 1.0602497e-38
0.80474639 0.43498406 0.61000162 1.0602497e-38
0.81487387 0.43506449 0.61000168 1.0602497e-38
0.82513165 0.43514746 0.61000168 1.0602497e-38
0.83403814 0.43482926 0.61000186 1.0602497e-38
0.84432542 0.43517229 0.61000186 1.0602497e-38
0.85522938 0.43499371 0.61000192 1.0602497e-38
0.86449176 0.43501598 0.61000204 1.0602497e-38
0.27423796 0.44169846 0.61143839 1.0602497e-38
0.30040804 0.4458352 0.61831063 1.0602497e-38
0.36036661 0.4456844 0.61987293 1.0694693e-38
0.56850761 0.44497451 0.61000007 1.0602497e-38
0.57570493 0.44498622 0.60999995 1.0602497e-38
0.58506912 0.44491529 0.61000007 1.0602497e-38
0.59450358 0.44484273 0.61000043 1.0602497e-38
0.60530424 0.4450323 0.61000025 1.0602497e-38
0.61500877 0.44514367 0.61000043 1.0602497e-38
0.62490755 0.44506413 0.61000049 1.0602497e-38
0.63512212 0.44511929 0.61000055 1.0602497e-38
0.64428478 0.44509536 0.61000055 1.0602497e-38
0.65451849 0.44493061 0.61000061 1.0602497e-38
0.66514564 0.44486305 0.61000061 1.0602497e-38
0.6748926 0.4450433 0.61000067 1.0602497e-38
0.68450511 0.44502741 0.61000073 1.0602497e-38
0.69424826 0.44498911 0.61000079 1.0602497e-38
0.70412827 0.44494987 0.61000085 1.0602497e-38
0.7141552 0.4449316 0.61000085 1.0602497e-38
0.72461593 0.44511893 0.61000085 1.0602497e-38
0.73487568 0.44485664 0.61000109 1.0602497e-38
0.74521554 0.44482437 0.61000127 1.0602497e-38
0.75474179 0.44488284 0.61000144 1.0602497e-38
0.76440114 0.44494221 0.6100015 1.0602497e-38
0.77517122 0.44491023 0.61000144 1.0602497e-38
0.78489774 0.44538489 0.6100015 1.0602497e-38
0.79475945 0.44503641 0.61000156 1.0602497e-38
0.80474627 0.44501609 0.61000156 1.0602497e-38
0.81487381 0.44516397 0.61000162 1.0602497e-38
0.82513195 0.44497627 0.61000162 1.0602497e-38
0.83403832 0.44505626 0.6100018 1.0602497e-38
0.84480333 0.44494814 0.61000186 1.0602497e-38
0.85522979 0.44501621 0.61000198 1.0602497e-38
0.86449128 0.44509801 0.6100021 1.0602497e-38
0.56850767 0.45343399 0.61000007 1.0602497e-38
0.57550859 0.45366159 0.61000007 1.0602497e-38
0.58488429 0.45369968 0.61000007 1.0602497e-38
0.59467793 0.45347658 0.61000031 1.0602497e-38
0.60540682 0.45356384 0.61000031 1.0602497e-38
0.6153025 0.45368549 0.61000025 1.0602497e-38
0.62506664 0.45354623 0.61000049 1.0602497e-38
0.63517112 0.45380566 0.61000055 1.0602497e-38
0.6442852 0.45361105 0.61000055 1.0602497e-38
0.6546911 0.4534215 0.61000061 1.0602497e-38
0.66525328 0.45350283 0.61000067 1.0602497e-38
0.67478353 0.4537605 0.61000067 1.0602497e-38
0.68444741 0.45355982 0.61000073 1.0602497e-38
0.6942659 0.45346543 0.61004442 1.0602497e-38
0.70418811 0.45361686 0.61000091 1.0602497e-38
0.71452421 0.45364472 0.61000097 1.0602497e-38
0.72431487 0.45368767 0.61000109 1.0602497e-38
0.73487568 0.45346692 0.61000109 1.0602497e-38
0.7456696 0.45349428 0.61000121 1.0602497e-38
0.75474238 0.45361206 0.61000139 1.0602497e-38
0.76393414 0.45373145 0.61000144 1.0602497e-38
0.77526361 0.45352668 0.61000144 1.0602497e-38
0.78489745 0.45363483 0.6100015 1.0602497e-38
0.79466528 0.45374534 0.61000156 1.0602497e-38
0.80474585 0.45337614 0.61000156 1.0602497e-38
0.81508172 0.45373598 0.61000162 1.0602497e-38
0.82539994 0.45346421 0.61000174 1.0602497e-38
0.8345629 0.45389614 0.61072153 1.0602497e-38
0.84446424 0.45369262 0.61000192 1.0602497e-38
0.85522902 0.45331067 0.61000204 1.0602497e-38
0.86449099 0.45378953 0.61000204 1.0602497e-38
0.358008 0.47284138 0.61466837 1.0694693e-38
0.37859607 0.47721648 0.6190809 1.0694693e-38
0.46128559 0.47956258 0.61937356 1.0602497e-38
0.2595858 0.48321506 0.61498517 1.0602497e-38
0.40255904 0.48380613 0.61806375 1.0694693e-38
0.55888748 0.48839039 0.61103606 1.0602497e-38
0.65857977 0.49150249 0.61421371 1.0602497e-38
0.26612407 0.51706558 0.61944044 4.1326169e-39
0.35495976 0.51217002 0.61153799 1.0602497e-38
0.43055034 0.52582258 0.61552942 1.0602497e-38
0.27844304 0.5455386 0.61539173 1.0602497e-38
0.36607376 0.54495424 0.6111393 1.0602497e-38
0.29511645 0.55259854 0.61281288 1.0602497e-38
0.42589736 0.5553146 0.61742824 1.0602497e-38
0.28696311 0.56109029 0.61543185 4.1326169e-39
0.29516196 0.56110722 0.61488301 4.1326169e-39
0.30063409 0.5611186 0.61621755 4.1326169e-39
0.28529966 0.57585341 0.61822867 4.1326169e-39
0.32615158 0.57578719 0.61285633 1.0602497e-38
0.28208637 0.58309889 0.61432683 4.1326169e-39
0.41636011 0.58441126 0.61126769 1.0602497e-38
0.37269503 0.62187612 0.61043972 1.0602497e-38
0.3563737 0.63248914 0.61385196 1.0602497e-38
0.43619192 0.68776774 0.6176402 1.0602497e-38
0.44879994 0.74078399 0.61714572 1.0510302e-38
0.43940273 -0.77356368 0.62796044 1.0786889e-38
0.41288805 -0.74467993 0.62011921 1.0786889e-38
0.34875855 -0.71600962 0.629291 1.0879084e-38
0.45538324 -0.70940191 0.62054402 1.0786889e-38
0.4056623 -0.69002891 0.62092054 1.0786889e-38
0.44348511 -0.6704064 0.62193382 1.0879084e-38
0.31067544 -0.58739966 0.62562257 1.097128e-38
0.39946538 -0.58567065 0.62295461 1.0879084e-38
0.29944542 -0.56724387 0.62167335 1.1063476e-38
0.27967268 -0.55892706 0.62898612 1.1164145e-41
0.2853094 -0.55891532 0.62524974 1.1164145e-41
0.29503888 -0.55889535 0.62512404 1.1164145e-41
0.30022025 -0.55888468 0.62171185 1.1164145e-41
0.32680705 -0.55297625 0.62801152 1.097128e-38
0.42982036 -0.52635115 0.62086892 1.1063476e-38
0.69900662 -0.52740991 0.62080169 1.1063476e-38
0.40152037 -0.51827407 0.62496328 1.1063476e-38
0.41501254 -0.50800824 0.62327647 1.1063476e-38
0.35333052 -0.48957857 0.6238457 1.1063476e-38
0.83518744 -0.47459352 0.62750429 1.1063476e-38
0.7386964 -0.46104345 0.62098253 1.097128e-38
0.48482701 -0.45069081 0.62617201 1.097128e-38
0.37569487 -0.44563344 0.62007666 1.1155671e-38
0.41763991 -0.44791856 0.62480545 1.1063476e-38
0.46280205 -0.44643277 0.62830788 1.097128e-38
0.65976518 -0.448888 0.62162584 1.097128e-38
0.23047891 -0.43714038 0.62247723 1.1063476e-38
0.55925488 -0.43771291 0.62672019 1.097128e-38
0.59327871 -0.43628645 0.62057966 1.097128e-38
0.23195463 -0.42784417 0.62664217 1.1063476e-38
0.85196757 -0.42172998 0.62504447 1.1063476e-38
0.51409835 -0.41022611 0.62083 1.9372573e-39
0.77774119 -0.41635513 0.62691712 1.1063476e-38
0.85183197 -0.41278753 0.62711132 1.1063476e-38
0.40410224 -0.40985104 0.62476701 1.1155671e-38
0.70841712 -0.40286139 0.62592357 1.097128e-38
0.80243647 -0.40248707 0.62775654 1.1063476e-38
0.49533856 -0.39799219 0.62396592 1.097128e-38
0.64041632 -0.39978725 0.62861246 1.097128e-38
0.45853019 -0.38045964 0.6218003 1.097128e-38
0.69571269 -0.36051393 0.62750286 1.097128e-38
0.48446059 -0.34425744 0.62989289 3.1369159e-39
0.53707713 -0.34979737 0.620408 1.097128e-38
0.49983665 -0.33157977 0.62096876 1.0694694e-38
0.86817527 -0.33500105 0.62870401 1.097128e-38
0.5190863 -0.32415345 0.62265033 4.3343409e-39
0.52093345 -0.32831794 0.62562811 1.9372573e-39
0.51881754 -0.31541601 0.62405086 3.3205687e-39
0.53496659 -0.31297907 0.62851733 2.9521519e-39
0.51892954 -0.30451125 0.62599212 2.9521519e-39
0.52006686 -0.30134928 0.62184656 3.4127657e-39
0.77689332 -0.30135489 0.62278074 1.097128e-38
0.84214002 -0.30609974 0.62712407 1.097128e-38
0.5187701 -0.29650131 0.62665254 3.5053187e-39
0.520482 -0.29414943 0.62427598 3.2287346e-39
0.52117467 -0.28536361 0.62582654 3.0443461e-39
0.86834431 -0.28261223 0.62277043 1.097128e-38
0.37711596 -0.27953142 0.6232363 1.0879084e-38
0.38483539 -0.2739538 0.62147135 1.0879084e-38
0.52250105 -0.27540234 0.62596047 3.2287346e-39
0.74939352 -0.27916023 0.6261034 1.097128e-38
0.37348446 -0.26558086 0.6242224 1.0879084e-38
0.52406847 -0.26471803 0.62531441 3.5971542e-39
0.38534519 -0.25725353 0.62371051 1.0879084e-38
0.50311577 -0.25179288 0.62146491 1.0879084e-38
0.52559471 -0.25461641 0.62552768 4.3347094e-39
0.53863966 -0.25021917 0.62057322 1.0879084e-38
0.87515569 -0.25251424 0.62388277 1.097128e-38
0.52697057 -0.24507697 0.62539995 4.7956806e-39
0.5199334 -0.23384005 0.62805307 1.0879084e-38
0.52819622 -0.23505411 0.62560028 6.639212e-39
0.65143299 -0.23853056 0.621925 1.0879084e-38
0.79744053 -0.23631413 0.62382156 1.097128e-38
0.86232978 -0.23207015 0.62149781 1.097128e-38
0.52917045 -0.22635189 0.62610489 6.8236033e-39
0.53065068 -0.22332418 0.6221323 4.4268924e-39
0.51186657 -0.21816139 0.62743956 4.4269064e-39
0.52977228 -0.21933372 0.62809736 9.4965324e-39
0.53075379 -0.21486312 0.62658828 8.2061636e-39
0.53188604 -0.20447765 0.62638211 6.1782366e-39
0.40629989 -0.19285834 0.62028414 1.0879084e-38
0.46974641 -0.19344383 0.62242317 1.0879084e-38
0.53332841 -0.19461861 0.62541014 3.3209148e-39
0.53525645 -0.18491697 0.62497991 2.8599339e-39
0.72184443 -0.18494104 0.6284914 1.097128e-38
0.53802305 -0.17489612 0.62525278 4.3235116e-39
0.53984576 -0.1694929 0.62560886 5.5159101e-39
0.54184425 -0.16445301 0.62501907 5.9772484e-39
0.55605394 -0.1611373 0.62274712 1.9376202e-39
0.56352705 -0.16302226 0.62317663 2.3064126e-39
0.57145262 -0.16494118 0.62144184 2.121657e-39
0.64179462 -0.16089661 0.62049055 1.0879084e-38
0.84909922 -0.16939493 0.6287291 1.097128e-38
0.54532313 -0.15895034 0.62290931 4.6976934e-39
0.55279386 -0.15951607 0.62072086 1.7528618e-39
0.4162125 -0.14666882 0.62199396 1.0879084e-38
0.49006248 -0.14901435 0.6226809 1.0879084e-38
0.50535417 -0.14959694 0.62937582 1.0879084e-38
0.77187258 -0.14898367 0.62292582 1.097128e-38
0.39928278 -0.13302694 0.62956882 1.0879084e-38
0.54636776 -0.13556102 0.62099928 3.1365544e-39
0.80089855 -0.13367313 0.6274026 1.0879084e-38
0.71233809 -0.12167346 0.62925166 1.0879084e-38
0.30325696 -0.11675259 0.62728167 7.8366285e-39
0.40597337 -0.10396957 0.62055629 1.0786889e-38
0.76683056 -0.10606309 0.62160265 1.0879084e-38
0.35573673 -0.099694729 0.62584639 1.0786889e-38
0.71257138 -0.097662948 0.62875736 1.0879084e-38
0.80234516 -0.092671953 0.62679368 1.0879084e-38
0.35897687 -0.080004558 0.62303972 1.0786889e-38
0.41369349 -0.080056705 0.62828863 1.0786889e-38
0.4765493 -0.087576188 0.6275509 1.0879084e-38
0.52963036 -0.080780536 0.62737399 1.1708482e-38
0.53088498 -0.081841841 0.62553674 1.1616648e-38
0.59431463 -0.084333137 0.62365782 1.0879084e-38
0.69467556 -0.081689067 0.62874866 1.0879084e-38
0.79370713 -0.088864528 0.62011689 1.0879084e-38
0.84925717 -0.08085233 0.62393564 1.0879084e-38
0.27913398 -0.079306543 0.6230517 1.0786889e-38
0.48086792 -0.070404105 0.62283397 1.1151708e-38
0.51896244 -0.070427909 0.62491202 8.9429761e-39
0.52428347 -0.075644337 0.62543565 1.0602495e-38
0.79184163 -0.075494722 0.62824148 1.0879084e-38
0.48663959 -0.06967058 0.62568438 1.0786889e-38
0.50881761 -0.060098372 0.62474501 9.0351717e-39
0.51390755 -0.065203823 0.62547565 8.9429761e-39
0.50459486 -0.054758053 0.62577325 1.0602497e-38
0.82763714 -0.05763137 0.62747747 1.0879084e-38
0.86001879 -0.059111148 0.62847161 1.0879084e-38
0.49788627 -0.043304756 0.62650937 1.1524451e-38
0.50116187 -0.047461059 0.62442487 1.1524451e-38
0.75974524 -0.041646302 0.62912357 1.0879084e-38
0.49763501 -0.036622535 0.62629855 1.1616648e-38
0.50206172 -0.03252919 0.62381482 1.1616645e-38
0.65353096 -0.034652613 0.62682045 1.0879084e-38
0.41882399 -0.022723738 0.62309891 1.0786889e-38
0.4279471 -0.029688371 0.62361646 1.0786889e-38
0.43456525 -0.021725958 0.62002009 1.0786889e-38
0.50690967 -0.027027704 0.62550437 1.1524091e-38
0.51258618 -0.022128154 0.62493497 1.1616286e-38
0.77767467 -0.024467524 0.62228239 1.0879084e-38
0.32925543 -0.01796902 0.62750626 0
0.36218867 -0.016686339 0.62780839 1.0786889e-38
0.47521713 -0.014500846 0.62695479 1.0786889e-38
0.51793879 -0.017545117 0.62503803 1.1616285e-38
0.52323359 -0.013008455 0.62473506 1.0230463e-38
0.50126028 -0.0064017437 0.62494802 7.6227063e-39
0.52804643 -0.0087569812 0.62549013 7.366975e-39
0.53456461 -0.0032252267 0.62522674 7.2744178e-39
0.56436855 -0.0025843848 0.62482595 8.9307133e-39
0.53937614 0.001045694 0.62629128 6.5357667e-39
0.54452097 0.005676162 0.6251719 7.1825809e-39
0.60541332 0.003804855 0.62204683 1.0786889e-38
0.72389615 0.0046452414 0.62630212 1.0786889e-38
0.77450275 0.0017036619 0.62890667 1.0879084e-38
0.35971269 0.01632645 0.62608588 1.0786889e-38
0.55486369 0.015046295 0.62514162 6.8130767e-39
0.56006819 0.019506902 0.62498814 7.0900251e-39
0.73849601 0.014034394 0.62038147 1.0786889e-38
0.51874709 0.020639889 0.62099421 1.0786889e-38
0.56608391 0.024650129 0.62582344 7.1822208e-39
0.57102966 0.029546076 0.62479645 1.096983e-38
0.83212405 0.022715272 0.62323582 1.0879084e-38
0.57599175 0.034102276 0.62578273 1.1523008e-38
0.58254474 0.038383864 0.62372994 1.1246061e-38
0.67179936 0.035632007 0.62575841 1.0786889e-38
0.5882141 0.042110074 0.62492734 1.1243537e-38
0.59222913 0.044173859 0.62427747 1.1336814e-38
0.48418894 0.054349214 0.62679511 1.0786889e-38
0.52926689 0.05460237 0.62804615 1.0786889e-38
0.76152486 0.059413776 0.62039155 1.0786889e-38
0.77246219 0.053126514 0.62073761 1.0786889e-38
0.70689565 0.06174149 0.62260985 1.0786889e-38
0.84251815 0.066946618 0.62132227 1.0786889e-38
0.87140006 0.066786908 0.62994313 1.0786889e-38
0.44311702 0.075392 0.62431628 1.0786889e-38
0.71320474 0.072571352 0.62672645 1.0786889e-38
0.3770189 0.097658306 0.62284791 1.0786889e-38
0.51587045 0.093029939 0.62348801 1.0786889e-38
0.68512517 0.098551549 0.62479937 1.0786889e-38
0.497491 0.10413004 0.62229872 1.0786889e-38
0.50575268 0.10160348 0.62649047 1.0786889e-38
0.57723063 0.10203218 0.62610525 1.0786889e-38
0.84005815 0.11671308 0.62444651 1.0786889e-38
0.64835304 0.12595281 0.62166291 1.0786889e-38
0.38606822 0.13596605 0.6227563 1.0694693e-38
0.40970445 0.13822863 0.62946498 1.0694693e-38
0.64717847 0.13573061 0.62021768 1.0786889e-38
0.68842411 0.13510722 0.62439537 1.0786889e-38
0.40670702 0.14563176 0.62801099 1.0694693e-38
0.48701912 0.1599746 0.62148273 1.0786889e-38
0.62629044 0.15628459 0.62313265 1.0786889e-38
0.30561855 0.17314228 0.62838548 7.7444329e-39
0.56227326 0.17916046 0.62057161 1.0786889e-38
0.75996637 0.17501022 0.6203391 1.0786889e-38
0.34253919 0.18138392 0.62765372 1.0694693e-38
0.72098839 0.18326634 0.62994909 1.0786889e-38
0.77675521 0.18887474 0.62494254 1.0786889e-38
0.45325282 0.1982038 0.6270048 4.1426572e-39
0.4675591 0.19844043 0.62496305 1.0786889e-38
0.43072692 0.20503071 0.6208908 1.0694693e-38
0.44753951 0.20608775 0.62687021 4.8805824e-39
0.45140752 0.20158978 0.62650639 4.3266856e-39
0.53125024 0.20486292 0.62709749 1.0694693e-38
0.83965898 0.20273049 0.62904263 1.0786889e-38
0.3704533 0.21901064 0.62985545 1.0694693e-38
0.42570654 0.21501525 0.62563026 6.3662054e-39
0.43863028 0.21849684 0.62625039 4.4192441e-39
0.4423666 0.21335316 0.62644291 4.4192441e-39
0.47505462 0.21079139 0.62505072 1.0694693e-38
0.65782648 0.21708107 0.62403572 1.0694693e-38
0.43431497 0.22479376 0.62709349 4.2341298e-39
0.82032764 0.2247391 0.62458009 1.0786889e-38
0.33424464 0.23775637 0.62699723 0
0.42905846 0.23430912 0.62877017 3.7727901e-39
0.43091941 0.23071103 0.62588042 4.3263254e-39
0.68464345 0.23612735 0.62391412 1.0786889e-38
0.82664287 0.23852398 0.62108672 1.0786889e-38
0.84094304 0.2357551 0.62064445 1.0786889e-38
0.56389725 0.24278368 0.62627214 1.0694693e-38
0.7372843 0.25913906 0.62960404 1.0694693e-38
0.40034354 0.26007295 0.62764859 1.0694693e-38
0.61601931 0.26070863 0.62752402 1.0694693e-38
0.8366074 0.26614776 0.62986422 1.0694693e-38
0.77390301 0.27213627 0.6200242 1.0694693e-38
0.39422145 0.28445646 0.62225032 1.0694693e-38
