# .PCD v0.7 - Point Cloud Data file format
VERSION 0.7
FIELDS x y z rgb
SIZE 4 4 4 4
TYPE F F F F
COUNT 1 1 1 1
WIDTH 1016
HEIGHT 1
VIEWPOINT 0 0 0 1 0 0 0
POINTS 1016
DATA ascii
4.0679283 -0.30332017 -0.023631845 4.978564e-39
4.1099377 -0.30519736 -0.024343897 4.978564e-39
4.4717612 -0.30205169 -0.022479977 4.978564e-39
4.8317218 -0.30688924 -0.022044219 4.978564e-39
0.47345731 -0.29327253 -0.023719462 4.978564e-39
1.5277929 -0.29527855 -0.023695689 4.978564e-39
1.7504194 -0.29139647 -0.028754208 4.978564e-39
1.9490148 -0.2963568 -0.021580648 4.978564e-39
2.3217704 -0.29960546 -0.025913348 4.978564e-39
2.771523 -0.29408604 -0.025971459 4.978564e-39
3.372117 -0.29999852 -0.023868781 4.978564e-39
3.5360966 -0.29494864 -0.028071111 4.978564e-39
3.9182322 -0.29001886 -0.027387021 4.978564e-39
1.5947893 -0.28432605 -0.023188317 4.978564e-39
2.9791837 -0.28019008 -0.021789221 4.978564e-39
3.7297838 -0.28309348 -0.029028215 4.978564e-39
3.7974432 -0.28948408 -0.026691841 4.978564e-39
4.4164352 -0.28432557 -0.027892495 4.978564e-39
1.5757592 -0.27406052 -0.020815833 4.978564e-39
2.5689857 -0.27823901 -0.025656877 4.978564e-39
2.6186357 -0.2735731 -0.021430437 4.978564e-39
2.6419923 -0.27485368 -0.029378982 4.978564e-39
2.9706028 -0.27688709 -0.026107572 4.978564e-39
3.3805947 -0.27832952 -0.027488999 4.978564e-39
3.4614685 -0.27934417 -0.026897615 4.978564e-39
4.2358274 -0.27433866 -0.026834847 4.978564e-39
4.2538166 -0.27830517 -0.021451728 4.978564e-39
4.5167174 -0.27146479 -0.021266578 4.978564e-39
4.5429254 -0.27154747 -0.022218246 4.978564e-39
4.5582852 -0.27593386 -0.028308231 4.978564e-39
2.0053449 -0.26106253 -0.028923435 4.978564e-39
3.0119088 -0.26797298 -0.025342109 4.978564e-39
4.0499477 -0.26721582 -0.029825278 4.978564e-39
4.1106267 -0.2605153 -0.026859222 4.978564e-39
4.2689672 -0.26760605 -0.020340158 4.978564e-39
4.6125154 -0.26116318 -0.02521573 4.978564e-39
4.7081814 -0.26414382 -0.024814399 4.978564e-39
4.8515697 -0.26805574 -0.023756012 4.978564e-39
1.5498167 -0.2523509 -0.028357765 4.978564e-39
1.8517107 -0.25828645 -0.020411186 4.978564e-39
2.9033995 -0.25384748 -0.021001421 4.978564e-39
3.4855249 -0.25242639 -0.021531699 4.978564e-39
4.0693712 -0.25650647 -0.023115091 4.978564e-39
4.5226531 -0.25188202 -0.025723446 4.978564e-39
4.8096199 -0.25674209 -0.022035694 4.978564e-39
0.49572688 -0.24311857 -0.020915192 4.978564e-39
1.8642727 -0.24342743 -0.025844406 4.978564e-39
2.4836144 -0.24748915 -0.023912126 4.978564e-39
2.6814275 -0.24900782 -0.021764569 4.978564e-39
3.7365665 -0.24418263 -0.02264329 4.978564e-39
3.9589317 -0.2468058 -0.021881651 4.978564e-39
4.2611923 -0.24812603 -0.023933107 4.978564e-39
4.615612 -0.24471577 -0.021267191 4.978564e-39
4.8270555 -0.24965373 -0.029488645 4.978564e-39
4.8361168 -0.2450605 -0.027244948 4.978564e-39
1.8108764 -0.23749302 -0.026874594 4.978564e-39
1.886323 -0.23152609 -0.024178542 4.978564e-39
2.2536979 -0.23436406 -0.028347431 4.978564e-39
2.935653 -0.23446119 -0.024034105 4.978564e-39
4.2434359 -0.23948365 -0.026001157 4.978564e-39
4.6473041 -0.23167503 -0.029683443 4.978564e-39
2.1219082 -0.22371688 -0.027714605 4.978564e-39
2.2702289 -0.22716174 -0.025882924 4.978564e-39
3.0190196 -0.22506247 -0.022111177 4.978564e-39
3.5021777 -0.22651874 -0.028819492 4.978564e-39
4.1321745 -0.22258173 -0.028414361 4.978564e-39
2.1756902 -0.2150903 -0.028386988 4.978564e-39
2.7568266 -0.21307078 -0.023630135 4.978564e-39
2.8813481 -0.21480829 -0.027920956 4.978564e-39
3.1498756 -0.21164675 -0.026439013 4.978564e-39
3.2181163 -0.21421848 -0.024504263 4.978564e-39
3.6404681 -0.21047096 -0.024669364 4.978564e-39
3.7351918 -0.21383028 -0.022879303 4.978564e-39
4.0036812 -0.21524984 -0.028992942 4.978564e-39
4.4096909 -0.21749625 -0.029133392 4.978564e-39
4.4260273 -0.21789666 -0.023524463 4.978564e-39
4.6994987 -0.21126217 -0.027701808 4.978564e-39
2.1977432 -0.20890062 -0.027084164 4.978564e-39
2.4192955 -0.20938171 -0.02239549 4.978564e-39
2.9089968 -0.20567113 -0.022571545 4.978564e-39
3.0444214 -0.20554771 -0.024526924 4.978564e-39
3.4008517 -0.20473206 -0.021521689 4.978564e-39
4.2687559 -0.20622064 -0.028389031 4.978564e-39
4.4725204 -0.20757814 -0.023987582 4.978564e-39
4.7171631 -0.20501669 -0.022961471 4.978564e-39
3.343431 -0.1918916 -0.028035454 4.978564e-39
3.6392508 -0.1962001 -0.029609073 4.978564e-39
3.8331511 -0.19906075 -0.025336115 4.978564e-39
4.3040214 -0.19641906 -0.024622723 4.978564e-39
4.5262885 -0.1941869 -0.020584213 4.978564e-39
4.6119509 -0.19205701 -0.022315651 4.978564e-39
1.8652921 -0.18474691 -0.020118976 4.978564e-39
2.0350108 -0.18715169 -0.027132357 4.978564e-39
2.2575085 -0.18426169 -0.023409422 4.978564e-39
2.7818131 -0.18276842 -0.026398562 4.978564e-39
3.4519517 -0.18363313 -0.022562128 4.978564e-39
3.5865834 -0.18737374 -0.027736859 4.978564e-39
3.685842 -0.18173356 -0.020254768 4.978564e-39
4.0453634 -0.18285181 -0.028243085 4.978564e-39
4.5873742 -0.18471849 -0.027913289 4.978564e-39
2.1478992 -0.17701474 -0.026721356 4.978564e-39
4.2156935 -0.17792456 -0.027202759 4.978564e-39
1.7293619 -0.16412368 -0.020017633 4.978564e-39
1.9441364 -0.1699405 -0.023874134 4.978564e-39
2.3728788 -0.16830604 -0.020700581 4.978564e-39
3.2772882 -0.16299255 -0.027390067 4.978564e-39
3.2835586 -0.16078833 -0.020699887 4.978564e-39
4.2066131 -0.16318721 -0.021323495 4.978564e-39
4.2263398 -0.16704103 -0.023181198 4.978564e-39
4.8407636 -0.16384475 -0.022520609 4.978564e-39
1.9937402 -0.15512639 -0.028936375 4.978564e-39
2.9952137 -0.15963821 -0.029992355 4.978564e-39
3.0098133 -0.15000087 -0.024115007 4.978564e-39
3.2824864 -0.15621234 -0.029760567 4.978564e-39
3.6061099 -0.1561479 -0.02293333 4.978564e-39
3.6458967 -0.15515794 -0.027797805 4.978564e-39
4.2469296 -0.15134186 -0.024195185 4.978564e-39
4.8705072 -0.1500729 -0.021345787 4.978564e-39
1.9750445 -0.14723803 -0.027141958 4.978564e-39
2.1150713 -0.14915565 -0.029996447 4.978564e-39
2.1544123 -0.14825226 -0.02592661 4.978564e-39
2.9550049 -0.14180696 -0.020224629 4.978564e-39
3.7211463 -0.14973705 -0.023396872 4.978564e-39
4.100421 -0.14876638 -0.027577825 4.978564e-39
4.1520691 -0.14122055 -0.024102965 4.978564e-39
4.2894835 -0.14017516 -0.027687242 4.978564e-39
4.6506124 -0.14547709 -0.026646899 4.978564e-39
1.7261916 -0.1319418 -0.022215826 4.978564e-39
1.8178707 -0.13805877 -0.020973083 4.978564e-39
2.3659894 -0.13025904 -0.029534491 4.978564e-39
2.3722692 -0.13267745 -0.024332054 4.978564e-39
2.8585396 -0.1386562 -0.020396721 4.978564e-39
2.9305458 -0.1386936 -0.02934929 4.978564e-39
3.3439918 -0.13568658 -0.02839105 4.978564e-39
3.5890527 -0.13745402 -0.020906953 4.978564e-39
3.7190249 -0.13063553 -0.025477227 4.978564e-39
3.8075435 -0.13225335 -0.028458524 4.978564e-39
1.8804735 -0.12758073 -0.020039508 4.978564e-39
2.0118718 -0.12194871 -0.023495046 4.978564e-39
3.1187453 -0.1285345 -0.02772519 4.978564e-39
3.4520552 -0.12839065 -0.028836163 4.978564e-39
3.596523 -0.1243203 -0.020063831 4.978564e-39
4.0835714 -0.12898785 -0.029096227 4.978564e-39
4.3267736 -0.12193078 -0.028251853 4.978564e-39
4.4936285 -0.12308238 -0.024210893 4.978564e-39
4.7036905 -0.12398271 -0.026013229 4.978564e-39
1.5466884 -0.11315857 -0.020178529 4.978564e-39
1.6177797 -0.11446285 -0.021554852 4.978564e-39
2.094538 -0.11096167 -0.024948018 4.978564e-39
2.3701992 -0.11191064 -0.02098521 4.978564e-39
3.5011325 -0.11509221 -0.024423506 4.978564e-39
3.7911053 -0.11587427 -0.024306703 4.978564e-39
3.9960487 -0.11533759 -0.028522195 4.978564e-39
4.0811224 -0.11837362 -0.021415338 4.978564e-39
4.639945 -0.1198246 -0.027535327 4.978564e-39
2.4226465 -0.10620831 -0.023426004 4.978564e-39
3.1458042 -0.1072729 -0.020456633 4.978564e-39
3.9092972 -0.10674262 -0.023195155 4.978564e-39
4.2151656 -0.10467504 -0.025195459 4.978564e-39
0.54652005 -0.091338478 -0.023715969 5.6315243e-39
2.0320628 -0.095438749 -0.027798012 4.978564e-39
2.0660946 -0.096707016 -0.027201802 4.978564e-39
2.4678338 -0.094627373 -0.025501676 4.978564e-39
2.4911144 -0.090306215 -0.029440988 4.978564e-39
2.7836657 -0.092832983 -0.020097023 4.978564e-39
2.8992662 -0.094044879 -0.022174165 4.978564e-39
3.4801795 -0.094465554 -0.021608399 4.978564e-39
4.7389112 -0.092708871 -0.020508595 4.978564e-39
1.7312289 -0.081768595 -0.021940462 4.978564e-39
1.9120688 -0.088092692 -0.021379976 4.978564e-39
1.9973164 -0.081562221 -0.026959058 4.978564e-39
2.632674 -0.080388598 -0.02828409 4.978564e-39
3.9759848 -0.089208432 -0.028814163 4.978564e-39
4.1013446 -0.089258268 -0.024218047 4.978564e-39
4.2601695 -0.086869866 -0.021295846 4.978564e-39
2.043889 -0.071403824 -0.022470046 4.978564e-39
2.4668257 -0.07726597 -0.023545051 4.978564e-39
2.6152418 -0.073281884 -0.023919113 4.978564e-39
3.0782232 -0.075903125 -0.020730859 4.978564e-39
3.1490126 -0.078493491 -0.025456829 4.978564e-39
4.2570376 -0.079804368 -0.029590849 4.978564e-39
4.3938208 -0.07656911 -0.021047024 4.978564e-39
1.6287309 -0.064464703 -0.028924607 4.978564e-39
3.6707559 -0.067703605 -0.02492048 4.978564e-39
4.5498753 -0.066827536 -0.022961043 4.978564e-39
4.6983986 -0.060246646 -0.024269374 4.978564e-39
4.7922959 -0.067031428 -0.024002276 4.978564e-39
1.7779739 -0.053755529 -0.022281887 4.978564e-39
1.9097787 -0.055229768 -0.028528109 4.978564e-39
2.7390785 -0.054687805 -0.023068858 4.978564e-39
2.8170815 -0.059236731 -0.024573516 4.978564e-39
3.3754826 -0.055795711 -0.022160448 4.978564e-39
3.6340818 -0.053406082 -0.022007233 4.978564e-39
1.9450274 -0.041461803 -0.029601658 4.978564e-39
2.3295472 -0.040437751 -0.022159707 4.978564e-39
2.4804718 -0.047400579 -0.023694577 4.978564e-39
3.1345873 -0.042732678 -0.025910258 4.978564e-39
3.2306666 -0.047840327 -0.02567417 4.978564e-39
3.6537263 -0.047674205 -0.027765164 4.978564e-39
3.7496414 -0.049751908 -0.026194682 4.978564e-39
4.5190134 -0.043566771 -0.022331167 4.978564e-39
1.590102 -0.039684139 -0.023169585 4.978564e-39
1.6352634 -0.03641431 -0.026172817 4.978564e-39
1.8095689 -0.033918995 -0.023933331 4.978564e-39
2.1179101 -0.030628366 -0.021200616 4.978564e-39
2.8018892 -0.038104374 -0.020683549 4.978564e-39
2.9533482 -0.039609823 -0.027250621 4.978564e-39
3.7179661 -0.039827563 -0.024070188 4.978564e-39
3.757412 -0.035348892 -0.028011065 4.978564e-39
4.1964045 -0.034490876 -0.028168559 4.978564e-39
4.3144531 -0.033245508 -0.020832771 4.978564e-39
4.8515711 -0.0365768 -0.020977814 4.978564e-39
2.8147178 -0.020998415 -0.027811699 4.978564e-39
3.7142122 -0.02683305 -0.027038721 4.978564e-39
1.7048781 -0.013581064 -0.029603919 4.978564e-39
2.1982377 -0.016669825 -0.025341157 4.978564e-39
2.2059541 -0.011109185 -0.021823049 4.978564e-39
2.9254007 -0.019825222 -0.020039337 4.978564e-39
2.9409158 -0.01477434 -0.024084263 4.978564e-39
3.2236035 -0.013653792 -0.023121124 4.978564e-39
3.4165959 -0.011751772 -0.029229084 4.978564e-39
3.9647822 -0.01982883 -0.021119824 4.978564e-39
4.2948713 -0.01617042 -0.024987333 4.978564e-39
1.7746532 -0.0057240892 -0.029584628 4.978564e-39
2.0635402 -0.0046169218 -0.029116951 4.978564e-39
2.501843 -0.0038676672 -0.023323201 4.978564e-39
2.5320833 -0.0052738301 -0.02232126 4.978564e-39
2.5890319 -0.00070284121 -0.028422229 4.978564e-39
2.9781718 -0.0031025754 -0.026045864 4.978564e-39
3.4727979 -0.0080526248 -0.02335554 4.978564e-39
4.4758615 -0.0005231034 -0.023932088 4.978564e-39
1.5730507 0.0045816223 -0.021345969 4.978564e-39
2.1806369 0.0072936043 -0.026869085 4.978564e-39
3.3627727 0.005104077 -0.029514939 4.978564e-39
4.5715423 0.0016270224 -0.029049968 4.978564e-39
2.3386436 0.018796034 -0.026503399 4.978564e-39
2.6612048 0.017085519 -0.023336433 4.978564e-39
3.2053394 0.01905879 -0.027977534 4.978564e-39
3.8125932 0.011805485 -0.025023056 4.978564e-39
4.0224175 0.011396591 -0.024021337 4.978564e-39
4.8742061 0.018908754 -0.028193124 4.978564e-39
2.3495204 0.028873164 -0.024438573 4.978564e-39
2.3691015 0.020119995 -0.023699803 4.978564e-39
2.7826009 0.024235979 -0.026129264 4.978564e-39
2.8392868 0.025743736 -0.0223688 4.978564e-39
3.3083336 0.028162949 -0.021544773 4.978564e-39
3.5335767 0.026694484 -0.023760408 4.978564e-39
4.0980444 0.028053056 -0.029509833 4.978564e-39
4.345716 0.020456683 -0.029920632 4.978564e-39
4.3573527 0.020212553 -0.024497913 4.978564e-39
4.4037423 0.025971239 -0.029299082 4.978564e-39
2.6831565 0.0390452 -0.020781206 4.978564e-39
2.8827159 0.039089702 -0.023987668 4.978564e-39
2.9334121 0.036073357 -0.020967385 4.978564e-39
3.4395244 0.030535864 -0.023661984 4.978564e-39
4.0398321 0.031408735 -0.025189565 4.978564e-39
4.7975984 0.035592385 -0.020291844 4.978564e-39
4.8087192 0.039644346 -0.021362413 4.978564e-39
2.5580511 0.046756182 -0.020416263 4.978564e-39
2.8561561 0.045063198 -0.024005227 4.978564e-39
3.8050356 0.043116156 -0.020225365 4.978564e-39
3.9341817 0.049541023 -0.022682056 4.978564e-39
3.9545717 0.043804355 -0.020131025 4.978564e-39
4.7950783 0.047479577 -0.027711557 4.978564e-39
2.2834249 0.056401551 -0.020138729 4.978564e-39
2.3269622 0.056189433 -0.023238139 4.978564e-39
2.8223822 0.05939348 -0.021783076 4.978564e-39
3.5528519 0.056411851 -0.024442915 4.978564e-39
4.3521981 0.057967599 -0.020211987 4.978564e-39
4.3727469 0.050280645 -0.029892256 4.978564e-39
1.8389926 0.063723586 -0.020215288 4.978564e-39
1.9083916 0.062435977 -0.026059188 4.978564e-39
1.9566509 0.061826911 -0.024797313 4.978564e-39
2.7083864 0.060518354 -0.025082111 4.978564e-39
2.9679377 0.067454681 -0.028167367 4.978564e-39
3.8804336 0.06617853 -0.021712206 4.978564e-39
4.3174858 0.063769534 -0.020499198 4.978564e-39
4.8469706 0.066795982 -0.020906491 4.978564e-39
1.6815541 0.072357424 -0.020486804 4.978564e-39
1.8720949 0.078900233 -0.023686331 4.978564e-39
2.5883744 0.076606125 -0.020197611 4.978564e-39
2.6146381 0.077935189 -0.022651827 4.978564e-39
2.9402366 0.071042292 -0.024984235 4.978564e-39
3.4633365 0.071189158 -0.022049554 4.978564e-39
3.6615992 0.0744147 -0.024763407 4.978564e-39
4.7163701 0.075104974 -0.029588643 4.978564e-39
1.5316267 0.084785901 -0.029589504 4.978564e-39
1.5757626 0.084414303 -0.025377778 4.978564e-39
1.7782791 0.080532156 -0.02129247 4.978564e-39
1.8809243 0.089569874 -0.022143779 4.978564e-39
2.1800609 0.089667179 -0.028488023 4.978564e-39
2.4482281 0.089625165 -0.023168014 4.978564e-39
3.7792964 0.083871096 -0.024153596 4.978564e-39
4.6176896 0.081140898 -0.024768462 4.978564e-39
4.662437 0.089913011 -0.02253552 4.978564e-39
2.0135732 0.097098663 -0.028604083 4.978564e-39
2.6379156 0.09186852 -0.025441037 4.978564e-39
2.641326 0.091993511 -0.024012519 4.978564e-39
2.992533 0.094100043 -0.023268497 4.978564e-39
4.12152 0.098848969 -0.022506753 4.978564e-39
4.2231283 0.096911363 -0.024004668 4.978564e-39
4.2961845 0.09007562 -0.025153132 4.978564e-39
1.7599444 0.10596263 -0.022018524 4.978564e-39
2.3970733 0.10073388 -0.026407612 4.978564e-39
2.4757028 0.10565808 -0.020300165 4.978564e-39
2.8128304 0.10567673 -0.026549932 4.978564e-39
3.1813884 0.100988 -0.024081033 4.978564e-39
3.2345877 0.10854039 -0.024389623 4.978564e-39
3.2779541 0.10732214 -0.025498293 4.978564e-39
3.6804228 0.10135039 -0.026726438 4.978564e-39
3.7233953 0.10623744 -0.023071364 4.978564e-39
3.7514596 0.10065857 -0.023710743 4.978564e-39
3.9805319 0.10439149 -0.028569127 4.978564e-39
1.8199856 0.11435409 -0.020561036 4.978564e-39
1.8343494 0.11477914 -0.029939348 4.978564e-39
2.2519634 0.1183913 -0.029452795 4.978564e-39
2.6461921 0.11665215 -0.021992944 4.978564e-39
2.7254868 0.11320288 -0.025108702 4.978564e-39
3.0482869 0.11714884 -0.022150788 4.978564e-39
3.8062747 0.11877055 -0.026019812 4.978564e-39
1.6685457 0.12223346 -0.029515371 4.978564e-39
1.7266334 0.12974672 -0.028998276 4.978564e-39
2.2904081 0.12855451 -0.026272101 4.978564e-39
2.8414016 0.12161208 -0.029109573 4.978564e-39
3.067445 0.12698394 -0.025001889 4.978564e-39
3.4360316 0.129887 -0.027413419 4.978564e-39
3.914161 0.12107453 -0.027361091 4.978564e-39
4.0863552 0.12252285 -0.025432937 4.978564e-39
1.7753936 0.13447194 -0.023724061 4.978564e-39
2.0634902 0.13338502 -0.021608002 4.978564e-39
2.5245352 0.1325386 -0.023757655 4.978564e-39
2.9850125 0.13150015 -0.027479647 4.978564e-39
3.1699266 0.13352507 -0.024829781 4.978564e-39
4.0435448 0.13140036 -0.028134845 4.978564e-39
4.668499 0.134111 -0.029003816 4.978564e-39
1.8368161 0.14280725 -0.024189485 4.978564e-39
2.2440927 0.1403486 -0.022154611 4.978564e-39
3.2088346 0.145239 -0.025227543 4.978564e-39
3.3420453 0.14678416 -0.020932376 4.978564e-39
3.3702657 0.14486802 -0.022413772 4.978564e-39
3.9984872 0.14792016 -0.021032417 4.978564e-39
4.7816086 0.14794314 -0.022439787 4.978564e-39
4.8107414 0.14944193 -0.023272909 4.978564e-39
1.7491645 0.15955462 -0.020227643 4.978564e-39
1.8044218 0.15972494 -0.027460327 4.978564e-39
1.964384 0.15491202 -0.027108997 4.978564e-39
2.3597417 0.15089202 -0.021531224 4.978564e-39
2.4352264 0.1523739 -0.026270593 4.978564e-39
2.4474316 0.15990436 -0.024992187 4.978564e-39
2.7165508 0.15368661 -0.029265596 4.978564e-39
2.9772284 0.15992437 -0.023269948 4.978564e-39
3.3134022 0.15550306 -0.024637735 4.978564e-39
3.693989 0.15604532 -0.025043732 4.978564e-39
4.4691973 0.15051469 -0.023829553 4.978564e-39
4.500658 0.15749417 -0.027045025 4.978564e-39
4.7163873 0.15510735 -0.029559977 4.978564e-39
4.7768173 0.15186712 -0.023706377 4.978564e-39
2.0363302 0.16296491 -0.027520904 4.978564e-39
2.7011971 0.16670932 -0.028970515 4.978564e-39
2.7162755 0.16829617 -0.020506833 4.978564e-39
3.2497909 0.16649617 -0.0241783 4.978564e-39
3.7451537 0.16969854 -0.024610557 4.978564e-39
4.0657282 0.16597442 -0.022705749 4.978564e-39
4.0985169 0.16966176 -0.026303789 4.978564e-39
4.179533 0.16157885 -0.02692969 4.978564e-39
4.349606 0.16643022 -0.025452284 4.978564e-39
4.9007988 0.16110763 -0.022857212 4.978564e-39
1.9351332 0.1785892 -0.024454642 4.978564e-39
2.3175154 0.17787455 -0.023160774 4.978564e-39
3.9155645 0.17477313 -0.028510427 4.978564e-39
4.1094332 0.17134511 -0.022239016 4.978564e-39
4.1443434 0.17101407 -0.028334491 4.978564e-39
4.4426646 0.17445458 -0.020430522 4.978564e-39
4.4633775 0.17838664 -0.024590159 4.978564e-39
4.5317779 0.17436786 -0.020871419 4.978564e-39
2.3499868 0.18178748 -0.023143435 4.978564e-39
2.4196198 0.18529217 -0.024696462 4.978564e-39
2.7870653 0.18158296 -0.025105232 4.978564e-39
3.0295389 0.18018885 -0.027980248 4.978564e-39
3.9489248 0.18660092 -0.028428832 4.978564e-39
4.5405097 0.18889803 -0.029863499 4.978564e-39
1.6526253 0.19222581 -0.02865758 4.978564e-39
2.9605379 0.19015141 -0.024226023 4.978564e-39
3.5880346 0.19164106 -0.026976179 4.978564e-39
4.4508653 0.1915741 -0.021685384 4.978564e-39
4.5892124 0.19620681 -0.025661124 4.978564e-39
4.8677988 0.1997273 -0.02633119 4.978564e-39
1.9051579 0.20726685 -0.026080199 4.978564e-39
1.9602226 0.20801413 -0.026647678 4.978564e-39
2.2917109 0.20025754 -0.020376168 4.978564e-39
2.443017 0.20114683 -0.020894801 4.978564e-39
2.5988076 0.20671612 -0.023873668 4.978564e-39
2.6465445 0.20918339 -0.021085864 4.978564e-39
2.678726 0.20659186 -0.026287545 4.978564e-39
3.7361226 0.20939049 -0.025110709 4.978564e-39
3.8414848 0.2059724 -0.020236157 4.978564e-39
4.1485028 0.20289421 -0.027007705 4.978564e-39
1.5820322 0.2124109 -0.021591289 4.978564e-39
1.9589543 0.21509208 -0.022364644 4.978564e-39
2.1132298 0.21972968 -0.029414525 4.978564e-39
2.2871087 0.21644524 -0.024401488 4.978564e-39
2.334739 0.21883564 -0.026104555 4.978564e-39
2.4958127 0.21817294 -0.026881531 4.978564e-39
2.8240888 0.21882029 -0.023373915 4.978564e-39
3.1892579 0.21902749 -0.024828235 4.978564e-39
3.9280608 0.21851091 -0.023856482 4.978564e-39
4.293057 0.21654117 -0.023064077 4.978564e-39
4.6038404 0.21063805 -0.02902814 4.978564e-39
4.7640066 0.21977635 -0.024973005 4.978564e-39
1.6181809 0.22950898 -0.022244904 4.978564e-39
1.8390615 0.22261904 -0.023654521 4.978564e-39
1.8504769 0.22148496 -0.027605567 4.978564e-39
2.8146732 0.22986571 -0.028194571 4.978564e-39
2.8938146 0.2237719 -0.022857528 4.978564e-39
3.01599 0.22924018 -0.023961496 4.978564e-39
3.2480111 0.22924666 -0.028089883 4.978564e-39
3.4051368 0.22549444 -0.026630003 4.978564e-39
4.2043362 0.22626223 -0.026692566 4.978564e-39
4.2228141 0.2294178 -0.022205548 4.978564e-39
1.7274978 0.23095348 -0.027218472 4.978564e-39
1.7791533 0.23030721 -0.024769558 4.978564e-39
2.1079435 0.23035546 -0.027994171 4.978564e-39
2.1918983 0.23699406 -0.028293865 4.978564e-39
2.5570016 0.23731963 -0.025257336 4.978564e-39
3.6911721 0.2393676 -0.025023557 4.978564e-39
3.9139147 0.23507302 -0.026911356 4.978564e-39
4.1550722 0.2326231 -0.0284945 4.978564e-39
1.6196696 0.24719782 -0.026285589 4.978564e-39
1.9317836 0.24424289 -0.028446579 4.978564e-39
2.1593335 0.2445468 -0.025910901 4.978564e-39
2.7264376 0.24925223 -0.020182349 4.978564e-39
3.0651383 0.2465165 -0.024625797 4.978564e-39
1.5985106 0.25329295 -0.020550083 4.978564e-39
1.9608902 0.25422418 -0.024446966 4.978564e-39
2.2089217 0.25955617 -0.021382416 4.978564e-39
2.2103372 0.25932422 -0.025719233 4.978564e-39
3.0194082 0.2571038 -0.028903641 4.978564e-39
3.5976794 0.25273016 -0.023823816 4.978564e-39
3.7286484 0.25614616 -0.023549899 4.978564e-39
3.8523021 0.25641599 -0.022091879 4.978564e-39
4.6286631 0.2549192 -0.021197891 4.978564e-39
1.7737782 0.2659272 -0.025390234 4.978564e-39
1.8035233 0.26701 -0.024217827 4.978564e-39
1.9690932 0.26384869 -0.021859167 4.978564e-39
1.9968872 0.26613989 -0.021046493 4.978564e-39
2.1847959 0.267874 -0.021981793 4.978564e-39
2.2108316 0.26207966 -0.025298906 4.978564e-39
3.277508 0.26199386 -0.022876086 4.978564e-39
3.8934228 0.26199225 -0.028229846 4.978564e-39
2.2425354 0.27575749 -0.029932002 4.978564e-39
2.3813317 0.27492991 -0.025308503 4.978564e-39
2.4958179 0.27825904 -0.024653755 4.978564e-39
2.7455425 0.27723661 -0.020039314 4.978564e-39
3.5790558 0.27251008 -0.025553424 4.978564e-39
3.9778554 0.27127999 -0.027272541 4.978564e-39
4.7428098 0.27286568 -0.021625258 4.978564e-39
1.7597996 0.280572 -0.023248611 4.978564e-39
2.2730029 0.28462541 -0.023926686 4.978564e-39
2.43698 0.28927389 -0.028833231 4.978564e-39
3.0583785 0.28641433 -0.021680908 4.978564e-39
3.5104542 0.28707823 -0.029752523 4.978564e-39
3.8366098 0.28826842 -0.023164975 4.978564e-39
3.873522 0.28689316 -0.022656471 4.978564e-39
0.55952334 0.29103649 -0.022611998 4.978564e-39
1.6516989 0.29127192 -0.021492608 4.978564e-39
1.7292625 0.29480538 -0.02710261 4.978564e-39
1.9563746 0.298933 -0.021901695 4.978564e-39
2.1832294 0.29204243 -0.020648271 4.978564e-39
2.2921908 0.29280016 -0.022877514 4.978564e-39
2.4136515 0.29701591 -0.021096598 4.978564e-39
2.8905516 0.29706621 -0.029390318 4.978564e-39
3.7617929 0.29803842 -0.023468971 4.978564e-39
3.9682348 0.29395816 -0.025589608 4.978564e-39
4.0608644 0.2953437 -0.024052285 4.978564e-39
4.3883429 0.29788512 -0.021098003 4.978564e-39
0.55664206 0.30996212 -0.029038191 4.978564e-39
1.6800616 0.30684587 -0.020560067 4.978564e-39
1.7908608 0.30913186 -0.021277435 4.978564e-39
2.422471 0.30701414 -0.023742145 4.978564e-39
2.9992149 0.30636704 -0.02647654 4.978564e-39
3.1433227 0.30589607 -0.029376291 4.978564e-39
3.6683958 0.30431893 -0.023668148 4.978564e-39
4.3879228 0.3056505 -0.02863431 4.978564e-39
4.838798 0.30943426 -0.028929565 4.978564e-39
0.49849144 0.31130153 -0.021457588 4.978564e-39
2.1480289 0.31011286 -0.022938842 4.978564e-39
2.9532533 0.31309149 -0.028907135 4.978564e-39
3.3820927 0.3157022 -0.023884783 4.978564e-39
4.400661 0.31227016 -0.020587405 4.978564e-39
4.6714969 0.3168239 -0.028250298 4.978564e-39
2.3939593 0.32669461 -0.021835729 4.978564e-39
2.7319655 0.32373151 -0.020305386 4.978564e-39
2.9388311 0.32923192 -0.021080976 4.978564e-39
2.9993944 0.3200036 -0.025164299 4.978564e-39
3.033916 0.32931921 -0.025177378 4.978564e-39
3.1363289 0.32643077 -0.02537369 4.978564e-39
3.1594956 0.32320246 -0.026265416 4.978564e-39
3.5213954 0.32538384 -0.021912616 4.978564e-39
3.7562127 0.32907084 -0.027666487 4.978564e-39
3.9815123 0.32202587 -0.028780583 4.978564e-39
4.4940944 0.32507336 -0.022035701 4.978564e-39
1.5917569 0.33983749 -0.020254007 4.978564e-39
1.8375341 0.33335319 -0.02590041 4.978564e-39
2.3363898 0.33181465 -0.020647211 4.978564e-39
3.4249129 0.33198908 -0.029988168 4.978564e-39
4.0199847 0.33499223 -0.024377637 4.978564e-39
4.8811541 0.33578226 -0.023714079 4.978564e-39
1.6608776 0.342132 -0.021382056 4.978564e-39
2.4286602 0.34056914 -0.028685287 4.978564e-39
2.8177154 0.34031343 -0.026713694 4.978564e-39
3.175703 0.34192777 -0.023831163 4.978564e-39
3.1807857 0.34728324 -0.027873596 4.978564e-39
3.5576179 0.3415122 -0.027823504 4.978564e-39
3.9042108 0.3452791 -0.022089472 4.978564e-39
4.5865321 0.34376127 -0.023289295 4.978564e-39
1.80397 0.35612708 -0.023399331 4.978564e-39
2.2849731 0.35191673 -0.026543407 4.978564e-39
2.7675712 0.35804918 -0.027449017 4.978564e-39
3.0780554 0.35417393 -0.027448082 4.978564e-39
3.6038175 0.35771763 -0.025692163 4.978564e-39
4.2519741 0.35666651 -0.026006559 4.978564e-39
4.3202834 0.35005498 -0.021758461 4.978564e-39
4.5383768 0.35252944 -0.021780895 4.978564e-39
4.6729112 0.35578358 -0.026550755 4.978564e-39
1.6205823 0.36375311 -0.029875977 4.978564e-39
1.6711715 0.36579737 -0.028144224 4.978564e-39
1.6818382 0.36185059 -0.020146335 4.978564e-39
2.2009346 0.36074424 -0.024705963 4.978564e-39
2.6283052 0.36155117 -0.026959913 4.978564e-39
3.45836 0.36110395 -0.022934511 4.978564e-39
4.2076998 0.36591116 -0.022320189 4.978564e-39
1.5427984 0.37422588 -0.020859297 4.978564e-39
1.7930571 0.37071893 -0.027884983 4.978564e-39
2.8768251 0.37249434 -0.029501704 4.978564e-39
3.2491076 0.37577844 -0.0258481 4.978564e-39
3.7316351 0.37429574 -0.029500607 4.978564e-39
3.7942488 0.37705949 -0.026309805 4.978564e-39
3.8097715 0.37454525 -0.028434915 4.978564e-39
4.3025885 0.37938836 -0.027001265 4.978564e-39
0.49181449 0.38494265 -0.023556963 4.978564e-39
0.51236242 0.38943803 -0.020919327 4.978564e-39
1.5522112 0.38560355 -0.027220817 4.978564e-39
1.6941161 0.38077745 -0.022295417 4.978564e-39
1.8205985 0.3865684 -0.022458032 4.978564e-39
2.0887842 0.38003421 -0.022771161 4.978564e-39
2.6023922 0.38469794 -0.021125089 4.978564e-39
2.7482235 0.38283724 -0.027016126 4.978564e-39
2.7568288 0.38236645 -0.02238787 4.978564e-39
2.8284538 0.38797271 -0.025131024 4.978564e-39
3.8850114 0.38952759 -0.02441759 4.978564e-39
4.0091624 0.3860043 -0.027813103 4.978564e-39
4.0130363 0.38003266 -0.028533962 4.978564e-39
2.3286719 0.39554366 -0.024385946 4.978564e-39
2.6629252 0.39792788 -0.021661736 4.978564e-39
2.9018397 0.39385492 -0.022441281 4.978564e-39
3.5662582 0.39423567 -0.02045111 4.978564e-39
3.727865 0.39646176 -0.021373849 4.978564e-39
4.0894361 0.3943904 -0.023738872 4.978564e-39
4.4483032 0.39310619 -0.026368789 4.978564e-39
0.52591294 0.40175277 -0.027298393 4.978564e-39
2.1810386 0.40818641 -0.026120439 4.978564e-39
3.051194 0.40026626 -0.029277137 4.978564e-39
3.3503957 0.40336439 -0.021253029 4.978564e-39
3.6749103 0.40915456 -0.029892702 4.978564e-39
4.0278239 0.40736526 -0.023330981 4.978564e-39
4.4838557 0.40928006 -0.028870763 4.978564e-39
2.4492853 0.41754222 -0.024453942 4.978564e-39
2.5566604 0.41563949 -0.020467225 4.978564e-39
2.6563308 0.4108268 -0.025285736 4.978564e-39
4.0568156 0.41945627 -0.025910055 4.978564e-39
4.0743732 0.41069144 -0.022579821 4.978564e-39
4.1062512 0.41963255 -0.023278128 4.978564e-39
4.3346639 0.41510215 -0.029114205 4.978564e-39
4.630507 0.41577089 -0.026757821 4.978564e-39
1.6699719 0.42453742 -0.02121586 4.978564e-39
2.60059 0.42035145 -0.020327322 4.978564e-39
3.0251203 0.42785549 -0.020969119 4.978564e-39
3.160352 0.42602244 -0.028453039 4.978564e-39
3.2300739 0.42385861 -0.023642307 4.978564e-39
3.6000102 0.4236435 -0.024943901 4.978564e-39
4.1267853 0.42341313 -0.022944698 4.978564e-39
2.0364351 0.4323903 -0.028126119 4.978564e-39
2.3625631 0.43367407 -0.026526658 4.978564e-39
2.493418 0.43730935 -0.027172005 4.978564e-39
3.3172948 0.43008816 -0.021417215 4.978564e-39
3.6366606 0.4354901 -0.022960242 4.978564e-39
3.7371287 0.4371461 -0.020058507 4.978564e-39
4.1704583 0.43138841 -0.020603986 4.978564e-39
4.2891831 0.43261245 -0.029403249 4.978564e-39
4.2902851 0.43710667 -0.020305406 4.978564e-39
4.6980596 0.4309454 -0.029707253 4.978564e-39
0.51723558 0.44592673 -0.024933992 4.978564e-39
1.8435935 0.44114298 -0.023271287 4.978564e-39
2.3836608 0.44750488 -0.020602101 4.978564e-39
2.3934534 0.44909203 -0.024157315 4.978564e-39
2.5284104 0.44370332 -0.026076337 4.978564e-39
2.5599103 0.44136995 -0.020084666 4.978564e-39
2.6017931 0.44558126 -0.02710652 4.978564e-39
2.8132281 0.44532996 -0.02521294 4.978564e-39
3.1941614 0.44506717 -0.022260051 4.978564e-39
3.5521822 0.44870752 -0.027874161 4.978564e-39
3.6274071 0.44461 -0.024439819 4.978564e-39
4.2513337 0.44641867 -0.021954833 4.978564e-39
2.3828149 0.45744544 -0.020227227 4.978564e-39
2.7749882 0.45683274 -0.022356458 4.978564e-39
2.9077528 0.45063382 -0.020745572 4.978564e-39
2.9252617 0.45122144 -0.022537671 4.978564e-39
3.2330966 0.45399904 -0.022483187 4.978564e-39
3.2487786 0.45329633 -0.021745227 4.978564e-39
3.3699808 0.457827 -0.028146092 4.978564e-39
3.3822248 0.45484683 -0.021646721 4.978564e-39
3.8641429 0.45041296 -0.020862326 4.978564e-39
1.9821078 0.46291801 -0.027693154 4.978564e-39
2.8770833 0.46911335 -0.022910919 4.978564e-39
3.47156 0.46267152 -0.02973621 4.978564e-39
3.6480913 0.46385986 -0.029831646 4.978564e-39
3.7340353 0.46121815 -0.024455791 4.978564e-39
3.8509836 0.46504509 -0.021601368 4.978564e-39
4.336875 0.46822977 -0.026503216 4.978564e-39
2.5351312 0.47291237 -0.022958191 4.978564e-39
3.0922065 0.478167 -0.025986766 4.978564e-39
4.1314154 0.47869927 -0.024841473 4.978564e-39
4.1617436 0.47730264 -0.027972711 4.978564e-39
4.7015038 0.47611281 -0.028042268 4.978564e-39
4.7446585 0.47890222 -0.020612812 4.978564e-39
4.7782545 0.47953257 -0.029140878 4.978564e-39
1.5404317 0.48977357 -0.025662221 4.978564e-39
2.2172213 0.48771775 -0.020380508 4.978564e-39
2.5606246 0.48890132 -0.023754666 4.978564e-39
2.9731488 0.4881559 -0.025955303 4.978564e-39
3.5708258 0.48002216 -0.02409414 4.978564e-39
4.0064878 0.48366639 -0.02073027 4.978564e-39
4.4496722 0.48366648 -0.028282734 4.978564e-39
4.5952926 0.4890283 -0.026972428 4.978564e-39
1.7172616 0.49458942 -0.02759238 4.978564e-39
1.7644534 0.49591419 -0.02499781 4.978564e-39
2.0540321 0.49158904 -0.021238729 4.978564e-39
2.3661587 0.4955304 -0.025171991 4.978564e-39
2.651907 0.49436045 -0.020320442 4.978564e-39
4.1289673 0.49439883 -0.029487845 4.978564e-39
4.2376337 0.49158189 -0.025130048 4.978564e-39
4.6411719 0.49232462 -0.026053397 4.978564e-39
2.4942546 0.50473863 -0.026256286 4.978564e-39
2.6334319 0.50984496 -0.023355456 4.978564e-39
2.718122 0.50997388 -0.02799391 4.978564e-39
2.7295773 0.50963187 -0.02739924 4.978564e-39
3.4881828 0.50994533 -0.023486687 4.978564e-39
3.500459 0.50950587 -0.021545999 4.978564e-39
4.2016592 0.50570565 -0.022192491 4.978564e-39
4.3616939 0.50624269 -0.026723066 4.978564e-39
4.5478172 0.50055861 -0.026041729 4.978564e-39
2.234092 0.51310194 -0.021405423 4.978564e-39
2.5687513 0.5105176 -0.02726705 4.978564e-39
2.8615203 0.51322913 -0.025843481 4.978564e-39
3.1428339 0.51127744 -0.021084437 4.978564e-39
3.9182792 0.51182377 -0.023986684 4.978564e-39
4.2289 0.51535964 -0.023045512 4.978564e-39
4.5618868 0.51996899 -0.023214057 4.978564e-39
1.5377091 0.52324247 -0.02240335 4.978564e-39
1.7230566 0.52299619 -0.021515615 4.978564e-39
2.1162009 0.52687687 -0.028455727 4.978564e-39
2.5954235 0.52857447 -0.022098975 4.978564e-39
3.1984174 0.52913672 -0.023516489 4.978564e-39
3.437032 0.52024573 -0.023443313 4.978564e-39
3.5899565 0.52083886 -0.026098058 4.978564e-39
3.7329021 0.52154082 -0.024086786 4.978564e-39
4.1023164 0.52422398 -0.026586695 4.978564e-39
4.4166317 0.52007574 -0.023984091 4.978564e-39
1.6671786 0.53455043 -0.023722624 4.978564e-39
1.8395956 0.53491044 -0.024063155 4.978564e-39
3.8841863 0.53656518 -0.020923022 4.978564e-39
4.5113387 0.5364207 -0.02305142 4.978564e-39
4.7998137 0.5364058 -0.020945678 4.978564e-39
1.681559 0.54929817 -0.02000091 4.978564e-39
1.9771307 0.54604876 -0.020538211 4.978564e-39
2.465673 0.54176617 -0.021056764 4.978564e-39
2.5344434 0.54898787 -0.023363035 4.978564e-39
2.9614091 0.54544687 -0.025610534 4.978564e-39
3.2230823 0.54830188 -0.025642166 4.978564e-39
3.4614639 0.54682678 -0.02047554 4.978564e-39
3.639133 0.54693538 -0.023106368 4.978564e-39
4.3294148 0.54821128 -0.021996005 4.978564e-39
1.5356516 0.55776918 -0.027912172 4.978564e-39
1.6936522 0.55916327 -0.027959917 4.978564e-39
1.8345263 0.55566192 -0.026148578 4.978564e-39
1.9544115 0.55075836 -0.022666508 4.978564e-39
3.372122 0.55669224 -0.025585894 4.978564e-39
3.4200876 0.55965054 -0.026159024 4.978564e-39
3.4471197 0.55365497 -0.023333635 4.978564e-39
3.6981809 0.55811244 -0.029267883 4.978564e-39
4.1390114 0.55997688 -0.024028536 4.978564e-39
4.6509399 0.55335963 -0.028023629 4.978564e-39
1.5881622 0.56800377 -0.026759965 4.978564e-39
1.609216 0.56218636 -0.027111499 4.978564e-39
1.8184868 0.56848425 -0.029301414 4.978564e-39
2.4701245 0.5623467 -0.029931201 4.978564e-39
3.1793201 0.56698436 -0.021217868 4.978564e-39
3.2669237 0.5675987 -0.022087548 4.978564e-39
3.2927415 0.56947351 -0.025425646 4.978564e-39
3.7846744 0.56702656 -0.023942389 4.978564e-39
4.0530562 0.56892365 -0.029339502 4.978564e-39
4.5555468 0.56874949 -0.023442652 4.978564e-39
4.7381201 0.5668031 -0.025858482 4.978564e-39
4.7907815 0.56280327 -0.023345001 4.978564e-39
1.8917998 0.57389688 -0.027353141 4.978564e-39
2.8586624 0.57492018 -0.027854158 4.978564e-39
2.9076247 0.57550979 -0.025758116 4.978564e-39
3.0968843 0.5711807 -0.026845353 4.978564e-39
3.1136398 0.5719744 -0.020057263 4.978564e-39
4.1871471 0.57949173 -0.025815643 4.978564e-39
4.3126493 0.57675308 -0.02665841 4.978564e-39
4.6134968 0.57492226 -0.022495417 4.978564e-39
1.6914572 0.58840245 -0.025748326 4.978564e-39
2.0739748 0.58642006 -0.028823629 4.978564e-39
2.5550578 0.5896486 -0.028896848 4.978564e-39
2.5745358 0.58889151 -0.02132103 4.978564e-39
2.9819281 0.58983034 -0.022032419 4.978564e-39
3.3009439 0.58912158 -0.026461555 4.978564e-39
4.5991278 0.5897792 -0.027166305 4.978564e-39
0.55047542 0.59747958 -0.023172559 4.978564e-39
1.9753115 0.59758645 -0.022910714 4.978564e-39
2.69137 0.597561 -0.024889737 4.978564e-39
2.8007622 0.59661847 -0.02919445 4.978564e-39
3.1932752 0.59053785 -0.02433927 4.978564e-39
3.9172473 0.59999204 -0.028997272 4.978564e-39
4.1275988 0.59285957 -0.029579807 4.978564e-39
4.2571983 0.5922296 -0.021764768 4.978564e-39
1.5258623 0.60149604 -0.022653129 4.978564e-39
1.8343016 0.60602206 -0.025041759 4.978564e-39
2.4411082 0.60746628 -0.023480082 4.978564e-39
2.6986518 0.60536057 -0.024802124 4.978564e-39
3.0909801 0.60537153 -0.026105508 4.978564e-39
3.330725 0.60191357 -0.026094725 4.978564e-39
3.8671601 0.60702288 -0.027299581 4.978564e-39
3.9883342 0.60272384 -0.026234509 4.978564e-39
0.55676079 0.61626118 -0.025205709 4.978564e-39
2.1789088 0.61886078 -0.023578206 4.978564e-39
2.2733784 0.61406857 -0.020111365 4.978564e-39
2.325619 0.61250687 -0.020594317 4.978564e-39
2.6503019 0.61094654 -0.020502349 4.978564e-39
3.466747 0.61662364 -0.029586287 4.978564e-39
3.7787244 0.61979479 -0.021510936 4.978564e-39
3.9005504 0.61948824 -0.027137553 4.978564e-39
4.094738 0.61837339 -0.022173895 4.978564e-39
2.0579176 0.62860179 -0.027709464 4.978564e-39
2.2561235 0.6238066 -0.029009443 4.978564e-39
2.6077595 0.62774414 -0.025825659 4.978564e-39
2.7585466 0.62088859 -0.023931863 4.978564e-39
2.8318977 0.62465793 -0.021720439 4.978564e-39
3.7242713 0.62968343 -0.027937181 4.978564e-39
3.7880092 0.62166458 -0.027978076 4.978564e-39
3.7964754 0.62010992 -0.020408584 4.978564e-39
3.9157205 0.62952131 -0.027629012 4.978564e-39
4.2041078 0.62514544 -0.026006676 4.978564e-39
4.2348318 0.62919557 -0.028045028 4.978564e-39
4.5885129 0.62993878 -0.021227915 4.978564e-39
2.1962247 0.63390726 -0.028967053 4.978564e-39
3.8691218 0.63606101 -0.026469033 4.978564e-39
4.1456342 0.63222069 -0.023979148 4.978564e-39
4.1820116 0.63203084 -0.02307258 4.978564e-39
4.4528618 0.6384517 -0.026469601 4.978564e-39
4.8413687 0.63864583 -0.022505578 4.978564e-39
1.656929 0.64092588 -0.02568504 4.978564e-39
1.6863626 0.64237964 -0.026877966 4.978564e-39
1.7380252 0.64794791 -0.021027632 4.978564e-39
2.4180965 0.64837271 -0.025188241 4.978564e-39
2.4839249 0.64427072 -0.023729406 4.978564e-39
2.9913855 0.64894861 -0.022750814 4.978564e-39
3.6239126 0.6450851 -0.026876533 4.978564e-39
3.6843235 0.64307123 -0.029312048 4.978564e-39
3.7920866 0.6412493 -0.022905821 4.978564e-39
4.504714 0.64476347 -0.023104105 4.978564e-39
1.6446217 0.65682387 -0.022320492 4.978564e-39
2.1585729 0.65649724 -0.028543416 4.978564e-39
2.8613334 0.654872 -0.024693422 4.978564e-39
2.8914351 0.65438312 -0.022510158 4.978564e-39
3.1854951 0.65427738 -0.023513719 4.978564e-39
3.7537959 0.65424114 -0.023559354 4.978564e-39
4.185194 0.65928829 -0.020056477 4.978564e-39
1.7268312 0.66691029 -0.023288142 4.978564e-39
1.7355075 0.66411632 -0.024683788 4.978564e-39
1.8121228 0.66301733 -0.021602308 4.978564e-39
2.156594 0.66813082 -0.024863131 4.978564e-39
2.3183088 0.66252005 -0.021221643 4.978564e-39
2.3904059 0.66831005 -0.020642774 4.978564e-39
3.2272236 0.66547287 -0.027853616 4.978564e-39
3.236928 0.66249204 -0.023355575 4.978564e-39
4.2139573 0.66699767 -0.027190104 4.978564e-39
4.4164963 0.66337603 -0.021932337 4.978564e-39
4.4270225 0.66944557 -0.028756239 4.978564e-39
4.5711637 0.66188699 -0.022977352 4.978564e-39
4.5808163 0.66654605 -0.027556838 4.978564e-39
2.435796 0.67809147 -0.027650548 4.978564e-39
2.4886746 0.67598695 -0.023732822 4.978564e-39
3.3301957 0.67666203 -0.02355375 4.978564e-39
3.7033284 0.67806196 -0.029199362 4.978564e-39
3.8599753 0.67761189 -0.029611047 4.978564e-39
4.0492043 0.67306817 -0.026890127 4.978564e-39
4.4693136 0.67318374 -0.025706686 4.978564e-39
4.6284046 0.67619628 -0.023065101 4.978564e-39
1.9522173 0.68026698 -0.023941536 4.978564e-39
2.1670108 0.68844783 -0.025184814 4.978564e-39
2.4083631 0.68432093 -0.026103117 4.978564e-39
2.4617624 0.68905485 -0.025379376 4.978564e-39
3.0936646 0.68505579 -0.021313379 4.978564e-39
3.2627234 0.68305945 -0.020449821 4.978564e-39
3.6456897 0.68518716 -0.020512937 4.978564e-39
3.6886208 0.68101776 -0.025393886 4.978564e-39
3.8772457 0.68208516 -0.020243384 4.978564e-39
4.168653 0.68474835 -0.022746226 4.978564e-39
1.7705985 0.69253737 -0.024300348 4.978564e-39
1.8795413 0.69795883 -0.028297424 4.978564e-39
2.0178995 0.69478136 -0.025485817 4.978564e-39
2.515753 0.69828123 -0.020049738 4.978564e-39
2.712579 0.69384503 -0.022274494 4.978564e-39
2.7295024 0.69078743 -0.029890584 4.978564e-39
0.55129784 0.70733809 -0.02643515 4.8863684e-39
1.5678836 0.70364231 -0.02602821 4.978564e-39
1.5774555 0.70459843 -0.023722155 4.978564e-39
2.2010164 0.70000333 -0.02875183 4.978564e-39
3.1020212 0.70619661 -0.020069538 4.978564e-39
3.5277886 0.70614994 -0.028570108 4.978564e-39
3.6665816 0.71296704 -0.02505805 4.978564e-39
3.7075665 0.71794617 -0.029164553 4.978564e-39
3.7965322 0.7199744 -0.023812637 4.978564e-39
3.8438792 0.71716917 -0.020074341 4.978564e-39
4.0756426 0.71831435 -0.02159214 4.978564e-39
4.1017652 0.71370548 -0.028057719 4.978564e-39
4.6145272 0.71389323 -0.024692034 4.978564e-39
4.9034834 0.71102494 -0.020581901 4.978564e-39
1.713294 0.72502512 -0.023289438 4.978564e-39
2.0182984 0.72630775 -0.021255661 4.978564e-39
3.0170496 0.72062898 -0.020567192 4.978564e-39
3.5743277 0.72264892 -0.020768907 4.978564e-39
3.9401045 0.72382808 -0.020972073 4.978564e-39
4.8374505 0.72024369 -0.02997197 4.978564e-39
2.04405 0.7371884 -0.02139069 4.978564e-39
2.1231728 0.73077577 -0.020136872 4.978564e-39
3.629663 0.73612893 -0.020029472 4.978564e-39
4.7745028 0.7391699 -0.023923842 4.978564e-39
3.0148375 0.74759972 -0.022330722 4.978564e-39
3.8657267 0.74299479 -0.021655269 4.978564e-39
3.9775596 0.74471879 -0.028573338 4.978564e-39
3.9902933 0.74866134 -0.029212045 4.978564e-39
4.2871032 0.74553126 -0.028770328 4.978564e-39
4.5514998 0.74985182 -0.022281894 4.978564e-39
1.837002 0.75979745 -0.02580302 4.978564e-39
1.9732634 0.75714087 -0.0207785 4.978564e-39
2.3730495 0.75517547 -0.020846298 4.978564e-39
2.4096909 0.75147569 -0.027660545 4.978564e-39
2.4151244 0.75945306 -0.021494756 4.978564e-39
2.494889 0.7584154 -0.023386244 4.978564e-39
2.6129942 0.75853026 -0.025415115 4.978564e-39
1.4890553 0.76473045 -0.025831709 4.978564e-39
1.6822445 0.76691508 -0.027396586 4.978564e-39
2.4445746 0.76793724 -0.020860575 4.978564e-39
2.8160441 0.76610482 -0.021658845 4.978564e-39
2.8300486 0.76941711 -0.02487538 4.978564e-39
2.9056742 0.76261747 -0.022273034 4.978564e-39
3.222209 0.7648676 -0.024852369 4.978564e-39
3.7878304 0.76941293 -0.024121089 4.978564e-39
3.9449556 0.76769394 -0.021853153 4.978564e-39
3.9777095 0.76216441 -0.028333969 4.978564e-39
3.9802063 0.76902568 -0.021210251 4.978564e-39
4.0313935 0.76886427 -0.024297729 4.978564e-39
4.6821594 0.76337296 -0.022081288 4.978564e-39
4.7424378 0.76254392 -0.020259362 4.978564e-39
2.8109114 0.77768242 -0.025934724 4.978564e-39
4.3082633 0.77270687 -0.026332492 4.978564e-39
4.3840818 0.77420294 -0.026079293 4.978564e-39
1.6212252 0.78470993 -0.02918653 4.978564e-39
1.899585 0.78763592 -0.026088178 4.978564e-39
2.0877461 0.78665984 -0.024123328 4.978564e-39
2.47943 0.7898711 -0.028280977 4.978564e-39
2.7608387 0.78979832 -0.025667308 4.978564e-39
2.9100654 0.78290719 -0.023657899 4.978564e-39
3.4541526 0.7893874 -0.020646356 4.978564e-39
3.4946277 0.78526241 -0.029058985 4.978564e-39
4.417551 0.78044689 -0.023664996 4.978564e-39
4.4524655 0.78780717 -0.025115581 4.978564e-39
4.5406108 0.78328216 -0.020261128 4.978564e-39
1.1030647 0.79857731 -0.023115875 4.978564e-39
1.3407468 0.79463857 -0.029620288 4.978564e-39
1.9606868 0.79176497 -0.021274988 4.978564e-39
2.1668832 0.79805386 -0.024490111 4.978564e-39
2.2464385 0.79322577 -0.022827649 4.978564e-39
2.9109313 0.79638684 -0.027313039 4.978564e-39
3.6925006 0.79779762 -0.026111264 4.978564e-39
3.9670565 0.79792964 -0.029176498 4.978564e-39
1.5812083 0.80453074 -0.029861525 4.978564e-39
1.6429619 0.80747932 -0.029444123 4.978564e-39
2.8015907 0.80689877 -0.023495605 4.978564e-39
2.9551539 0.80427271 -0.02430119 4.978564e-39
4.3538499 0.80288237 -0.020200746 4.978564e-39
1.109751 0.81725436 -0.026171263 4.978564e-39
1.7910973 0.81710231 -0.026374109 4.978564e-39
2.2401032 0.81811839 -0.027129542 4.978564e-39
2.4414334 0.81641555 -0.022742344 4.978564e-39
3.1098773 0.81713283 -0.021498576 4.978564e-39
3.8230491 0.81426513 -0.028108189 4.978564e-39
4.8077636 0.81603402 -0.021547833 4.978564e-39
1.546685 0.82560009 -0.027175078 4.978564e-39
1.7186412 0.8210966 -0.029238911 4.978564e-39
2.4334385 0.82148534 -0.025226386 4.978564e-39
3.1650481 0.82800853 -0.023283631 4.978564e-39
3.420866 0.82992792 -0.02518663 4.978564e-39
3.8608215 0.82366771 -0.021000545 4.978564e-39
4.000052 0.82232332 -0.029035989 4.978564e-39
4.0307813 0.82038909 -0.024919346 4.978564e-39
4.2548113 0.82938695 -0.024174431 4.978564e-39
4.3864312 0.82056284 -0.020735627 4.978564e-39
0.87304169 0.83785754 -0.029457657 4.978564e-39
1.1614951 0.83178318 -0.02277771 4.978564e-39
1.4815835 0.83871257 -0.020777782 4.978564e-39
2.3849099 0.83804232 -0.02563517 4.978564e-39
3.1507261 0.83946013 -0.022855738 4.978564e-39
3.1685393 0.83754075 -0.020753272 4.978564e-39
3.2430222 0.83218372 -0.027382327 4.978564e-39
3.9766698 0.83786577 -0.021380158 4.978564e-39
1.154986 0.84127319 -0.02359386 4.978564e-39
1.4104278 0.84143376 -0.022613168 4.978564e-39
1.4982932 0.84351456 -0.022289911 4.978564e-39
1.6881287 0.84295911 -0.021115342 4.978564e-39
2.1180372 0.84663004 -0.027306661 4.978564e-39
3.1571186 0.84663534 -0.023040108 4.978564e-39
4.1866508 0.84077621 -0.022273159 4.978564e-39
1.5328784 0.85252374 -0.025000034 4.978564e-39
2.2606943 0.85113418 -0.029732566 4.978564e-39
2.6329074 0.85097367 -0.023409143 4.978564e-39
2.8512011 0.85371315 -0.029687693 4.978564e-39
2.936533 0.85468978 -0.020279163 4.978564e-39
3.0174613 0.85043752 -0.02385675 4.978564e-39
3.8589084 0.8504793 -0.029957689 4.978564e-39
4.5727849 0.85840082 -0.022630541 4.978564e-39
4.656157 0.85774052 -0.0225711 4.978564e-39
0.99148804 0.86418122 -0.021086402 4.978564e-39
1.036551 0.86821252 -0.027407661 4.978564e-39
2.3930461 0.86504638 -0.029004624 4.978564e-39
2.5676432 0.86345589 -0.020358853 4.978564e-39
2.8778057 0.86443079 -0.020792311 4.978564e-39
3.2178299 0.86637443 -0.0278093 4.978564e-39
3.3884468 0.86278999 -0.020060441 4.978564e-39
3.3913941 0.8651526 -0.022477746 4.978564e-39
3.6234465 0.86930639 -0.02405953 4.978564e-39
4.1050949 0.86140168 -0.028715845 4.978564e-39
4.1594839 0.86984068 -0.026341887 4.978564e-39
4.6592984 0.86726028 -0.020032987 4.978564e-39
1.3160866 0.87006104 -0.02366641 4.978564e-39
1.6242093 0.87616038 -0.02398444 4.978564e-39
2.025696 0.87163788 -0.027641842 4.978564e-39
2.2627783 0.87568265 -0.024984948 4.978564e-39
3.1453075 0.87323594 -0.027064241 4.978564e-39
3.1688972 0.87804204 -0.029586552 4.978564e-39
0.87036252 0.88724804 -0.022842409 4.978564e-39
1.275281 0.88853788 -0.02724001 4.978564e-39
1.3075565 0.88906771 -0.024061356 4.978564e-39
1.8953156 0.88757205 -0.027400427 4.978564e-39
2.1151719 0.88726634 -0.023688998 4.978564e-39
2.2076061 0.8893714 -0.024948612 4.978564e-39
2.755353 0.88731146 -0.026212893 4.978564e-39
2.8422222 0.8846001 -0.025711734 4.978564e-39
3.3092589 0.88752198 -0.020677857 4.978564e-39
3.5269475 0.88668585 -0.029015733 4.978564e-39
3.6703157 0.88853246 -0.023280086 4.978564e-39
3.7869427 0.88377702 -0.027904451 4.978564e-39
4.3971586 0.88699096 -0.024573719 4.978564e-39
1.815504 0.89257622 -0.024688093 4.978564e-39
2.0442102 0.89036477 -0.02482816 4.978564e-39
2.4625428 0.89614403 -0.022507221 4.978564e-39
2.6851177 0.89542514 -0.028195582 4.978564e-39
2.8260486 0.89856291 -0.025055984 4.978564e-39
3.0575085 0.89371198 -0.02007002 4.978564e-39
4.2775426 0.89335227 -0.021223264 4.978564e-39
4.554553 0.89494234 -0.020533076 4.978564e-39
1.5585959 0.90544611 -0.025643615 4.978564e-39
1.8963519 0.90428275 -0.025368705 4.978564e-39
2.9827158 0.90415639 -0.026271777 4.978564e-39
3.4206741 0.90706176 -0.020652393 4.978564e-39
4.6003098 0.90006137 -0.02522774 4.978564e-39
1.8875341 0.91432196 -0.026731599 4.978564e-39
2.0390742 0.91132468 -0.029305765 4.978564e-39
2.4301867 0.91053468 -0.025771538 4.978564e-39
2.5802138 0.91269743 -0.026794249 4.978564e-39
3.6777675 0.91509026 -0.027451638 4.978564e-39
4.2796364 0.91333288 -0.024884216 4.978564e-39
4.8385715 0.9167093 -0.025039878 4.978564e-39
1.0740354 0.92830426 -0.021623923 4.978564e-39
1.1830585 0.92851275 -0.026305584 4.978564e-39
1.7197576 0.92945129 -0.02844484 4.978564e-39
2.2091341 0.92156106 -0.021359716 4.978564e-39
2.2803538 0.92585731 -0.025190234 4.978564e-39
2.899946 0.92355198 -0.023456931 4.978564e-39
2.9470339 0.92359251 -0.022625847 4.978564e-39
3.4543519 0.92253679 -0.027147364 4.978564e-39
3.472331 0.92035747 -0.022864146 4.978564e-39
3.8235168 0.92710209 -0.020434976 4.978564e-39
4.0435276 0.92934465 -0.02773012 4.978564e-39
4.0744214 0.92786044 -0.02056013 4.978564e-39
4.2267294 0.92381638 -0.023641232 4.978564e-39
1.1596463 0.93982655 -0.020401081 4.978564e-39
1.4023479 0.93463421 -0.026782788 4.978564e-39
2.5226464 0.93544948 -0.020519076 4.978564e-39
2.5584817 0.93713695 -0.029261798 4.978564e-39
3.4179356 0.93207145 -0.026807107 4.978564e-39
1.0032535 0.94285268 -0.028567137 4.978564e-39
1.0603472 0.94437093 -0.025871173 4.978564e-39
1.1431338 0.94469225 -0.029597096 4.978564e-39
1.2984409 0.94558907 -0.026436105 4.978564e-39
1.484828 0.94252378 -0.02170204 4.978564e-39
3.3524146 0.94071239 -0.020951774 4.978564e-39
4.1124573 0.94496107 -0.028969163 4.978564e-39
1.6727045 0.95199037 -0.025670985 4.978564e-39
2.140955 0.95570409 -0.024624145 4.978564e-39
2.6362762 0.95731306 -0.02814946 4.978564e-39
3.4891243 0.95802861 -0.025371008 4.978564e-39
4.8794045 0.95059371 -0.025644636 4.978564e-39
